# .PCD v0.7 - Point Cloud Data file format
VERSION 0.7
FIELDS x y z
SIZE 4 4 4
TYPE F F F
COUNT 1 1 1
WIDTH 1553
HEIGHT 1
VIEWPOINT 0 0 0 1 0 0 0
POINTS 1553
DATA ascii
182.45526 -161.07216 37.422138
173.62291 -139.48619 123.07091
146.61169 -189.93073 74.1147
145.01198 -144.40868 6.0000002e-06
155.33817 -109.16638 23.424427
172.7139 -138.55399 107.94779
157.05611 -134.12784 104.50509
113.18584 -165.4917 15.771605
172.29984 -149.31964 74.680092
132.76122 -148.68761 83.060265
136.18346 -162.59711 102.21494
178.42444 -135.09926 92.537018
123.20673 -179.11099 63.062119
122.24994 -165.44687 10.019264
135.04353 -199.90401 51.667538
102.55864 -134.58633 11.483021
145.42644 -135.79633 84.448486
163.36348 -127.64382 61.401199
125.68117 -171.25809 53.704624
136.34068 -194.72815 73.6492
124.79866 -151.23433 69.321541
170.44135 -156.3195 69.603462
136.60188 -142.86249 88.396431
169.7408 -166.67894 106.20791
142.23875 -167.71396 3.0000001e-06
200.19669 -140.92245 29.119944
112.33948 -151.79567 29.931963
158.54663 -195.737 95.919411
117.65407 -137.25415 35.058895
190.58813 -129.00682 33.072605
185.98492 -175.41531 82.362701
112.37819 -152.0314 29.882975
108.95101 -141.98868 78.76844
105.60266 -145.87317 80.051468
154.35744 -130.99623 74.485573
96.905289 -140.35652 95.894478
151.5316 -122.58656 104.73123
151.8092 -160.37973 69.603462
128.15236 -164.73227 50.997406
125.10867 -153.52901 93.098267
157.00723 -134.9483 71.353737
154.57335 -141.46217 147.34564
178.66479 -117.32465 1.1e-05
171.71886 -115.18253 23.858099
193.23328 -143.55594 70.437218
163.9415 -150.51266 4.9999999e-06
146.08676 -174.67397 125.418
143.96677 -137.18529 84.536758
170.26425 -175.8396 27.019604
153.11781 -182.18291 94.985939
169.25066 -107.67453 14.113155
158.73445 -133.40263 103.89587
153.50722 -133.54465 7.9999991e-06
154.17819 -130.5903 44.126305
107.78433 -155.9476 19.757671
170.33031 -133.509 41.88435
117.56464 -147.73338 66.53933
203.59306 -156.265 23.047112
206.25577 -140.20854 86.430199
138.05449 -171.92651 30.87838
155.16934 -127.30894 44.177208
193.29184 -147.18956 6.0000002e-06
191.86937 -145.66582 36.535622
189.82089 -137.11926 7.8304702e-06
143.99545 -102.34709 0.0082425037
96.869682 -137.65074 86.628487
183.22589 -141.4595 92.330414
183.77258 -110.94975 15.015916
159.19437 -165.31036 69.603462
180.25162 -157.28343 82.438103
150.79797 -205.55473 39.342987
170.73755 -199.60928 44.213562
187.54445 -171.9227 75.929176
143.30542 -171.82169 119.93207
203.47874 -160.65741 0.11806542
159.1647 -110.95117 26.193558
205.54341 -161.57681 6.4483495
210.60974 -140.4586 5.7178431
132.32178 -145.85599 51.632957
173.82066 -141.58261 98.261505
138.01237 -134.97629 41.027992
178.99416 -157.65576 115.30042
136.2827 -138.71519 100.5274
151.10057 -169.57845 2e-06
177.32312 -197.42755 66.958252
179.44072 -147.71115 98.528305
182.68289 -192.82553 79.917328
153.24857 -195.35834 32.853279
125.59114 -189.02812 74.243507
171.25269 -132.03535 95.806458
170.8374 -173.62682 9.5777111
151.2504 -126.18031 88.366714
163.17651 -128.77332 113.4893
145.53667 -136.31049 82.853699
167.13321 -169.22165 128.60445
173.17877 -188.24417 68.206497
137.81551 -174.47069 34.898712
175.09796 -176.48038 10.785875
169.73155 -143.8483 147.34564
154.89922 -109.70706 24.430141
137.39529 -165.76079 133.35329
176.55396 -196.81081 70.194221
127.02626 -155.12723 132.70668
172.51605 -174.57462 1.4564341e-06
200.2442 -148.84442 84.75367
198.72577 -140.01221 76.357361
169.73384 -179.97836 0.79995733
131.92227 -176.40634 8.3918543
118.07707 -128.88058 9.0000003e-06
131.16129 -142.45012 113.3183
206.8961 -141.90659 20.650837
158.47482 -133.02692 103.17183
140.79102 -132.55737 57.292351
141.28146 -198.92365 64.748505
173.70915 -135.89891 8e-06
125.51746 -147.95355 120.76014
108.15631 -161.07605 18.115656
142.45326 -199.94946 67.586334
130.74951 -109.82442 7.0827584
157.20227 -126.08791 147.34564
152.15816 -128.13925 87.252129
135.47127 -133.79007 93.686775
186.9198 -166.80493 60.26252
164.226 -174.94168 3.3943603
144.4518 -194.95467 75.490616
138.36119 -167.32794 87.460022
162.04085 -174.18736 103.82803
210.07745 -155.51764 4.2972126
169.8307 -105.17636 7.155273
105.09814 -159.9646 10.305258
140.88823 -181.1899 99.402344
172.25769 -142.29382 92.3918
151.08417 -153.98044 69.603462
184.30803 -178.7605 52.405899
154.75241 -134.48436 147.34564
223.03325 -140.40776 91.341492
131.29478 -146.50131 52.767132
211.11969 -145.79706 74.328293
142.5323 -131.36197 134.24713
161.9138 -126.91232 9.0000003e-06
155.65651 -130.48595 44.213215
205.10852 -136.35985 21.366644
178.2887 -152.47017 67.300201
146.25058 -106.72042 1.2866774e-05
200.64223 -129.67487 8.9999994e-06
192.37552 -167.071 25.444208
130.96468 -120.22618 28.217701
159.8349 -204.94614 80.725021
161.98892 -149.81927 147.34564
143.53833 -172.06055 108.42585
125.10374 -148.97574 59.574486
207.99426 -156.95523 9.5558929
157.32495 -178.78592 126.86591
145.97438 -179.37668 14.668073
174.16539 -115.79144 22.681946
181.69125 -152.72098 95.36026
144.98291 -208.42464 53.66523
184.05025 -136.8149 67.408646
164.49332 -179.74606 24.698154
120.53647 -145.25667 67.362907
170.51062 -150.7453 4.9999999e-06
172.49727 -197.44168 77.43708
149.47104 -124.59585 129.64525
171.4129 -174.36279 29.054169
141.76195 -154.76784 5.0000003e-06
124.36831 -165.94298 82.200546
160.49055 -103.41795 13.963764
90.369537 -137.72821 99.482124
170.79829 -105.79188 4.1267672
171.39185 -167.42047 104.5722
175.86638 -109.12914 7.6767135
168.07616 -136.63264 95.874405
164.94925 -171.35132 121.17029
117.98109 -140.9476 36.381371
139.74602 -119.9986 31.798054
178.58292 -133.63866 88.98275
173.21538 -149.83066 75.765411
170.84993 -176.12523 8.8279018
198.24184 -139.96399 7.0000001e-06
168.08203 -168.29645 123.34087
160.46219 -125.98975 138.20267
103.11808 -156.01265 13.187701
153.68925 -131.0786 75.881073
135.92319 -183.11235 94.102425
185.99887 -131.06413 36.375717
125.94106 -147.54048 113.71164
199.74553 -131.91611 26.555542
124.62336 -152.66304 117.67081
188.89986 -168.52425 28.163601
157.91901 -125.07597 98.76712
163.40929 -128.45801 43.672501
177.72751 -158.8909 142.90657
120.4787 -123.40755 29.506056
148.78911 -179.18336 12.713936
125.80441 -153.87421 113.39383
176.85008 -135.05608 59.055183
139.03595 -152.89735 69.603462
116.80538 -121.70487 26.822504
184.63779 -145.06027 58.825012
151.98779 -158.64168 4e-06
172.47182 -172.53822 2e-06
161.94513 -206.22739 64.742294
162.19125 -161.1944 147.34564
156.47194 -111.55527 28.038338
143.7834 -165.74133 69.603462
164.51624 -178.64035 13.51103
130.5499 -169.36955 91.386742
186.60501 -168.1917 82.763069
119.89996 -166.85056 27.416119
154.98132 -151.58888 69.603462
131.6235 -191.83636 73.933296
133.65253 -186.43047 89.891624
203.67429 -159.78111 0.0075122402
158.41603 -185.38611 103.32213
139.67169 -116.86126 1.1e-05
171.42108 -137.2282 138.26576
127.97222 -143.71741 58.337296
166.17625 -132.34087 147.34564
170.68108 -191.37668 91.892159
135.88197 -197.58636 70.297897
125.02378 -140.99051 84.744835
126.06027 -153.33694 86.413368
153.28339 -123.0881 97.395699
141.83849 -196.55042 71.637718
157.0013 -167.68954 112.81917
111.7578 -141.25085 29.843136
161.09531 -174.25952 1.7287628e-06
108.08424 -157.62491 20.765656
210.44247 -142.70441 7.7190084
162.55836 -106.31508 18.429859
146.40166 -174.99692 144.97586
186.06471 -178.78416 77.812469
156.61484 -179.47838 116.02062
148.99402 -203.17654 88.503006
150.28355 -130.35948 98.000847
203.82065 -145.81335 6.0000002e-06
89.015373 -137.69604 96.005913
174.08264 -172.33582 30.071243
195.08885 -163.54979 18.999907
162.05992 -174.16875 111.34295
139.55215 -198.07623 73.461182
167.50845 -168.85573 116.46247
124.88997 -172.81952 56.712105
143.65361 -135.26953 50.389427
155.95418 -180.57803 92.063095
160.6351 -108.66216 1.2e-05
108.27948 -142.49695 7.0000006e-06
180.80846 -162.29982 45.980408
171.32104 -199.0836 74.476952
168.45361 -204.71365 53.140312
168.59131 -146.80869 71.402435
204.43372 -130.03249 9.0000003e-06
174.90651 -109.36748 0.64410633
172.92879 -164.50067 80.588142
122.13429 -111.26399 6.8354588
202.45312 -127.94915 9.0000003e-06
202.1024 -143.81229 78.184486
152.1412 -99.978836 7.2907166
122.40782 -164.39362 64.101196
153.99043 -182.03748 117.89224
141.32001 -127.83289 39.699974
170.86389 -201.69995 80.280472
150.69199 -190.40575 30.66296
177.18018 -152.1306 68.721985
199.73839 -124.14978 17.876251
135.03326 -170.65678 21.341253
156.60455 -157.56386 147.34564
181.35016 -156.12685 46.564968
174.09514 -179.24672 6.3583746
139.31868 -139.83743 89.360588
144.61626 -129.32986 103.52502
184.40158 -161.86115 3.7575674e-06
163.53732 -192.59386 33.405823
151.00668 -125.58641 78.776146
154.10802 -202.26883 88.497223
147.80247 -204.9704 43.222546
128.63516 -144.91339 112.58378
131.76642 -159.98831 118.42473
138.97902 -178.91647 0.79352403
143.49162 -172.01263 107.83058
183.59682 -152.42528 90.546616
146.15628 -127.82813 126.01382
174.5827 -178.49223 7.4906464
143.39314 -130.52255 138.60822
152.7964 -181.55478 114.1181
207.4095 -158.21956 11.113953
182.78902 -113.33788 1.1025602e-05
176.08905 -192.84106 66.163528
209.88258 -139.74292 12.223236
183.35553 -160.96658 52.998608
145.70415 -131.12856 95.943352
129.24413 -151.45807 147.34564
168.21518 -202.21623 65.897247
104.37677 -147.44952 74.689255
159.2977 -117.298 35.308254
149.46782 -134.31906 105.37308
146.11456 -179.53513 17.167772
109.70647 -147.43443 75.115585
148.36949 -178.04092 75.299248
137.4902 -140.77097 147.34564
147.05688 -126.94995 144.19786
148.13478 -125.89886 133.82884
146.24001 -170.35345 147.34564
105.47116 -141.72855 86.228333
125.08738 -140.90442 85.3918
138.86249 -127.72827 79.873055
117.59241 -159.26611 69.91935
114.67786 -155.19048 30.644821
165.97614 -193.38504 34.809528
165.36623 -131.01889 113.27113
179.0712 -176.20375 10.247792
177.91873 -143.89162 145.42615
205.04247 -142.04727 81.336945
128.82828 -137.32755 89.137283
144.82446 -186.93747 96.871872
163.40305 -107.74889 1.2e-05
176.01212 -128.92088 76.318802
152.81589 -134.40456 8e-06
142.04741 -164.27682 147.34564
151.08263 -128.05188 57.811378
110.36932 -138.47928 85.757782
171.91302 -164.56076 118.80579
139.51993 -169.15079 70.287239
123.36491 -168.84538 77.384125
202.01108 -145.41919 69.083832
107.50654 -158.29391 16.811626
175.60295 -155.68645 101.08511
130.18463 -157.01624 4e-06
170.96716 -178.90076 30.641613
121.41061 -159.69502 79.755173
137.63237 -179.83624 3.6047959
114.51959 -160.21321 25.59996
104.53828 -144.56479 75.655502
113.70145 -153.7489 4.9999999e-06
176.61929 -126.66057 34.001278
187.12436 -163.71414 32.282333
177.64835 -191.27806 66.800018
179.56288 -135.18512 90.867966
122.40641 -111.11143 14.01477
129.62892 -143.94437 130.5836
163.43059 -204.20125 82.607346
133.53586 -169.3858 21.806753
150.65565 -207.82272 49.584167
156.6129 -176.33421 1e-06
128.7254 -178.17676 85.145798
143.44347 -172.13083 2e-06
107.6297 -145.91093 90.381508
208.319 -132.21759 6.8720608
152.06163 -156.57814 113.44076
171.95595 -178.8736 35.206848
134.55565 -194.83342 45.633263
159.40187 -177.18396 92.839363
113.85202 -138.47171 30.835686
128.79961 -161.70125 92.361603
150.75948 -111.69006 28.573513
142.16095 -171.66562 75.525757
160.51822 -175.67209 143.49306
126.39121 -141.01044 87.596008
182.11795 -189.43938 83.359032
141.23909 -169.70264 104.92153
118.55383 -130.23134 9.0000003e-06
136.8098 -154.90829 147.34564
102.92322 -141.2242 7.0000001e-06
209.22714 -153.00159 11.699369
173.37909 -191.07721 65.426178
136.04747 -124.0975 32.044132
171.22397 -129.82207 41.365101
216.71742 -142.1705 90.446754
181.21779 -155.7431 96.888786
157.2224 -129.87788 95.370819
136.11307 -164.81812 92.990295
150.03009 -127.88183 62.942352
169.79214 -166.98932 94.356995
192.3062 -158.14853 4e-06
160.8484 -125.08771 82.247375
165.19193 -165.62448 109.87559
151.68951 -162.5797 3.0000001e-06
105.04649 -148.4868 19.101864
125.35159 -153.40984 110.13644
155.35045 -178.29492 2.6543586
187.74686 -156.40785 68.526459
210.07285 -146.97296 7.2079854
136.62254 -196.88893 85.615852
172.61967 -199.76512 68.306961
176.04305 -140.60323 42.188377
133.1451 -161.40218 134.86487
153.41159 -104.18722 14.255074
173.65834 -170.90506 16.974697
135.66309 -169.79198 30.434467
150.39505 -181.34694 19.266031
108.62843 -125.35947 3.7640657
145.12729 -199.3847 67.435165
172.22946 -194.77258 72.687119
199.52658 -166.52716 10.96068
106.71027 -146.61232 23.471943
100.63881 -141.49635 2.7300968
119.3399 -149.39633 79.384613
175.73251 -150.32835 4.9999999e-06
146.25894 -204.42847 62.738976
143.35471 -202.21024 47.73999
171.33989 -137.14494 133.95251
138.90118 -131.74196 92.647217
201.1123 -144.37814 75.78743
186.95343 -151.28476 4.9999999e-06
139.91035 -168.34001 143.07732
122.24937 -166.32764 7.2576513
222.98108 -141.21976 93.100037
138.51511 -190.63 65.573654
149.7966 -127.90925 64.125038
98.325844 -141.57011 95.679543
171.55196 -150.2354 70.411797
163.14111 -206.49161 47.046028
171.9512 -164.52353 130.81677
161.65842 -165.35825 111.87247
117.19649 -123.91273 9.9999997e-06
176.18922 -155.11238 70.103813
174.18575 -199.59393 47.137768
163.71323 -117.3507 33.144058
124.90524 -140.10016 81.945244
137.16844 -136.59241 142.33554
175.26112 -199.67963 66.958786
153.88019 -204.39914 49.27713
169.34077 -108.54221 1.2e-05
139.66777 -168.09125 122.21643
153.4919 -208.79716 57.320644
110.20914 -143.87785 83.828659
102.53886 -153.89211 10.125269
193.8345 -152.02037 69.382484
140.33185 -141.18875 147.34564
176.41965 -143.771 101.14034
197.61758 -134.71167 29.327404
159.39279 -205.1618 85.845734
166.9904 -132.68449 136.78802
179.1243 -133.9823 88.032257
127.79414 -182.86166 52.665646
149.60507 -178.43001 99.060608
181.72571 -143.84334 38.619686
143.38721 -184.4534 98.972763
103.35042 -138.56427 93.447273
158.46231 -203.16949 48.984074
184.95833 -182.55441 56.425648
126.86572 -111.77503 17.503166
173.3448 -179.20651 6.6337276
186.48505 -161.59949 83.417145
113.64781 -162.98242 19.574203
129.76347 -190.20853 50.079773
130.39374 -143.19858 138.65369
173.51161 -129.14168 68.683479
165.00186 -126.87567 75.834023
151.94949 -162.57394 147.34564
126.59636 -142.99893 60.18589
196.99008 -161.7065 21.810472
123.91631 -149.51486 122.63873
128.00075 -189.62126 65.465767
173.13072 -153.07182 105.89832
154.20343 -191.91171 98.042603
167.31003 -169.67743 87.889008
155.43753 -106.45006 18.046799
172.95056 -138.79669 138.2243
147.14561 -136.44907 47.53112
115.48458 -160.52608 67.604568
172.6739 -163.81879 140.89178
143.4193 -110.44683 1.2e-05
95.199753 -137.90945 97.945915
153.25905 -145.88274 69.603462
125.66993 -154.25934 88.909904
181.21344 -147.27037 139.53452
163.02493 -193.28566 70.420509
169.76483 -199.79912 66.895493
159.34297 -129.09776 54.755432
132.07742 -160.30725 137.01714
97.808617 -141.25394 98.972206
130.93208 -159.13269 127.2989
138.3053 -171.84656 11.356795
174.11597 -114.9566 1.1e-05
114.15623 -164.19914 5.8375163
134.51056 -143.06166 93.117188
212.75095 -143.30692 89.611946
183.57903 -188.92982 71.157143
128.3105 -184.71033 52.207424
183.20599 -160.81677 52.642334
185.07907 -180.70125 72.982231
143.08853 -119.43715 34.257263
136.83461 -166.38345 70.653145
197.85147 -154.89832 4.9999999e-06
143.56163 -130.35825 131.74939
165.92563 -208.32503 54.757023
117.55368 -163.64912 3.0000001e-06
190.33969 -161.49963 68.502853
134.63531 -133.95901 60.253998
181.07487 -161.17957 45.669376
197.96942 -147.72705 78.145004
157.84685 -205.67331 41.33213
177.81712 -158.80353 113.14978
171.6104 -111.76236 1.2e-05
154.41252 -99.759201 5.3354697
181.28897 -113.24467 1.1e-05
144.16351 -155.26254 4.9999999e-06
135.13612 -174.61484 1.2565805
123.1563 -151.15855 142.89804
136.71638 -146.68268 78.309441
160.16757 -176.01404 129.31818
134.88786 -176.12823 39.55909
131.89456 -164.85986 3.0000001e-06
111.45606 -151.99695 68.006561
149.95892 -178.64493 112.00256
135.83221 -142.41153 49.375126
164.98306 -117.19846 32.308327
142.75883 -152.67828 147.34564
133.85847 -162.13373 115.56064
169.40421 -156.2016 69.603462
127.12863 -115.81029 1.1e-05
158.92206 -136.13675 73.320183
162.30286 -159.53845 147.34564
176.24635 -169.53969 99.769012
162.16553 -117.01794 33.735962
166.26486 -179.44426 15.739305
127.78322 -184.39349 54.472389
132.32697 -112.33647 1.2e-05
166.24863 -189.06961 63.251671
146.76424 -131.12018 96.369598
175.78194 -184.0675 41.03804
153.61107 -195.42842 96.14373
142.65503 -136.59055 50.074745
151.35548 -180.39032 94.588783
176.43738 -142.37247 127.90378
164.86674 -118.83798 34.368267
168.44028 -125.72247 39.222805
179.43451 -166.90399 27.871883
178.28302 -144.2652 135.94128
144.88858 -185.39807 31.779854
136.77008 -119.99275 29.964216
190.38742 -150.5036 76.834312
124.97613 -160.29013 84.190018
127.74493 -168.46631 87.056183
173.41617 -110.85635 1.2e-05
132.07709 -160.30692 136.01115
173.60237 -163.8 81.647179
145.73373 -200.02623 70.221451
171.14752 -198.7211 43.840042
100.20284 -137.9471 3.9778461
149.51608 -127.77594 43.572189
131.42206 -142.52512 41.471855
155.12468 -178.472 4.3634319
149.96701 -124.11222 135.13533
150.50986 -157.75714 113.04318
143.86288 -130.98901 94.156433
130.34569 -187.91057 47.726086
204.29482 -157.70436 4e-06
107.34784 -147.37933 72.121094
123.55943 -149.86287 142.3494
144.67264 -102.63156 11.221121
129.09148 -110.1757 12.795892
167.21616 -169.14079 132.71129
102.32983 -148.77699 7.9081831
146.67679 -149.60397 69.603462
205.56126 -143.8244 75.150101
150.49399 -123.59834 126.84993
174.95401 -193.10471 71.037132
162.69096 -135.76334 8e-06
180.34671 -195.36911 78.785629
192.11075 -156.72356 78.730087
156.6235 -177.8868 147.34564
129.91014 -190.88708 50.32045
197.50891 -147.79596 33.340275
138.40506 -135.38652 147.15932
146.46304 -126.10799 80.203972
161.00549 -152.01126 4.9999999e-06
131.12529 -174.40227 13.373652
183.82518 -171.44263 0.92508352
154.64716 -128.63905 81.218262
133.12444 -124.46946 31.893742
198.48621 -144.70766 69.254799
135.08235 -163.38882 131.36554
130.94896 -174.28075 3.9394944
177.8152 -130.15086 77.906723
169.69038 -195.20264 39.037735
106.2412 -157.27298 14.552794
167.22598 -153.4585 147.34564
171.46463 -201.79242 67.247581
128.35333 -152.30272 84.812775
100.59779 -145.60587 84.995163
193.2887 -163.25607 3.0000001e-06
168.93509 -139.81627 90.03331
135.29567 -163.60759 103.91267
190.15338 -157.65491 75.29203
97.198776 -141.24268 84.03624
164.07294 -132.98325 147.34564
124.8381 -171.06674 57.238926
156.3017 -124.42944 96.200066
131.5831 -129.56183 36.597572
149.89294 -124.18444 112.84695
119.26701 -163.29362 63.981861
167.50877 -206.73679 58.145191
119.67442 -160.228 69.870667
164.09158 -188.22231 97.423943
150.84184 -152.50056 147.34564
163.53191 -173.42316 86.401352
134.93901 -196.1875 45.923893
195.45348 -144.37622 70.212357
149.22777 -127.75864 64.157829
152.57465 -128.7854 9.0000003e-06
136.15039 -132.08127 63.17783
140.88474 -170.45804 72.787079
181.95372 -184.24458 83.343597
111.65908 -143.18506 75.298103
173.41919 -144.53258 147.34564
181.52864 -171.21552 24.115664
132.76874 -146.08145 40.006905
139.59363 -149.82074 5.1911361e-06
167.2841 -134.0054 100.47818
176.5854 -131.89339 65.805504
138.40196 -167.70213 78.46489
166.72131 -169.62329 127.38324
154.62308 -160.81207 111.99385
110.44641 -135.44684 27.640438
103.50651 -149.72446 17.473764
199.72456 -137.58008 28.667187
187.36908 -177.72446 60.356766
170.80705 -202.21576 48.220535
125.632 -154.01474 94.477196
144.66054 -129.28667 139.26814
129.48206 -193.27242 75.932045
153.6389 -123.12073 96.422646
149.21762 -177.88472 130.69983
128.86192 -127.01363 33.890564
164.6405 -199.38478 89.176575
170.18196 -188.79947 75.523384
203.28841 -160.79581 18.517403
143.33076 -137.03732 48.948189
108.15741 -160.99275 18.269955
161.53323 -103.55789 13.910216
185.11555 -149.08667 70.914368
189.37296 -149.86121 69.928368
170.44905 -184.84816 70.024658
133.94838 -151.94826 71.725304
139.18507 -167.59622 116.03328
89.574638 -140.64157 99.055771
178.59972 -194.21542 47.721897
153.437 -179.13229 1e-06
166.25278 -206.50467 59.888134
159.66559 -131.96671 85.831741
163.58641 -138.52065 79.406448
182.45242 -134.31693 82.497269
135.54727 -187.68115 90.886902
115.11942 -145.784 69.135139
142.23604 -179.78622 1e-06
179.3479 -119.28764 27.37496
155.06247 -182.88501 104.96682
114.85995 -147.87482 77.609032
127.30218 -152.70871 89.809143
132.75827 -110.09847 0.9882865
192.64474 -113.81754 3.119122
202.06738 -143.70981 75.500656
178.19246 -144.17233 126.34839
92.826057 -136.99104 98.359589
134.17155 -132.70612 89.46524
146.88435 -195.71811 64.107239
179.84625 -128.6154 9.0000003e-06
184.40614 -137.29599 39.498936
200.23686 -146.78433 67.716156
155.3376 -117.07286 1.1e-05
114.34148 -167.24455 11.134577
173.25787 -189.6956 91.029236
174.53928 -161.99983 131.28989
101.48425 -134.47202 6.8295374
127.31873 -154.686 54.737194
139.88956 -198.35956 43.428761
186.55193 -147.77583 60.084076
156.66658 -127.39638 63.698769
106.88744 -160.67349 13.611555
194.84552 -160.75061 30.124565
157.53404 -203.53731 72.957123
163.56096 -125.67366 81.046326
140.72185 -129.14653 9.0000012e-06
158.22902 -177.90437 108.83916
126.27776 -140.33337 87.186661
154.63794 -131.84766 73.05555
185.01569 -128.79276 9.0000003e-06
195.806 -123.41423 9.9999997e-06
127.07004 -143.59003 89.650352
126.41054 -143.40858 87.8647
126.31539 -120.72581 29.48315
136.51218 -158.38347 147.34564
133.42438 -162.132 91.064346
160.65678 -175.53699 108.51313
155.39957 -170.51559 110.51245
165.99467 -170.7363 93.294975
176.13895 -160.43994 140.14621
117.36966 -166.78104 4.9000697
167.42436 -142.88626 7.0000006e-06
169.40097 -169.46436 106.39607
136.26154 -164.68451 100.72668
151.72026 -146.65421 112.57471
183.10587 -185.57994 82.107391
160.20667 -178.48372 5.5458279
128.9313 -151.92148 51.965286
165.43698 -137.86075 85.894058
138.444 -167.6973 102.91449
183.09618 -160.05904 52.313599
166.48956 -178.61009 103.82614
156.28114 -179.91487 100.38071
216.55771 -140.17915 88.185944
151.42685 -203.21892 71.690987
175.85205 -198.37811 71.886925
193.72099 -117.11005 19.695419
145.5723 -144.11696 108.84535
141.91049 -190.56192 61.313217
189.27957 -149.43513 73.350655
124.11176 -167.32762 69.728088
104.67411 -161.66077 1.1422212
175.39539 -162.00476 82.778954
177.94345 -158.68034 128.93744
144.35037 -146.59723 110.31982
102.3753 -138.45953 89.341187
161.40236 -126.95389 128.61429
118.87426 -148.81001 72.792549
127.71641 -151.2579 89.086563
175.62852 -141.54297 111.05186
121.88435 -128.27516 32.5289
168.74683 -167.64819 108.56139
158.02042 -113.21945 30.099409
146.40417 -198.8045 89.324203
187.78273 -147.15723 83.648972
140.61113 -132.58995 57.308739
150.04944 -127.89017 62.638832
210.87366 -139.97307 84.081703
159.64954 -173.54439 2e-06
164.38181 -195.73796 72.087341
169.9671 -135.0891 41.290791
131.89716 -193.9091 70.425888
168.86578 -160.806 4e-06
164.71992 -171.64952 101.26224
124.79089 -151.5441 85.420059
138.42648 -163.93678 69.603462
186.24554 -133.58385 8e-06
142.3931 -171.27631 92.504616
168.1741 -136.34132 8e-06
102.28021 -153.47697 10.612242
151.93576 -181.12642 90.772163
96.165672 -138.58481 91.616447
189.20053 -161.56505 75.317261
163.73053 -169.90532 110.27077
177.09354 -194.90987 71.527817
117.25944 -156.58586 33.432049
153.35902 -100.39364 1.4e-05
158.93221 -105.20039 1.3e-05
152.60841 -124.62814 95.133331
185.18066 -181.59946 77.309662
134.64914 -143.73083 49.92308
179.63477 -166.56989 42.792873
153.62938 -121.73955 99.989761
183.64549 -143.27811 91.826569
181.44127 -157.89546 45.504654
207.06721 -136.16342 8e-06
91.87001 -139.06558 94.240318
136.97299 -142.43762 88.558029
174.5137 -190.58694 69.514549
170.47974 -147.56253 74.402519
167.74751 -174.55293 106.46897
141.28445 -139.27545 7.0000006e-06
157.96503 -157.38403 4e-06
124.08637 -179.89227 59.144463
172.25696 -157.4323 105.12033
182.5575 -150.0804 39.895714
125.73159 -153.79956 105.86531
132.13799 -160.36935 103.47263
137.54448 -186.28348 67.03389
189.62292 -158.21494 80.873001
169.1528 -167.2523 108.97863
164.78922 -171.50735 126.89174
173.66727 -136.72826 55.013985
127.54366 -154.34389 54.374546
147.37592 -192.12169 33.270699
140.53908 -159.76385 147.34564
147.3502 -170.94322 110.02561
131.93944 -163.86978 37.572212
139.80829 -204.32617 58.765694
125.53075 -160.36565 85.829483
202.92856 -129.25058 18.196985
180.28181 -187.83606 84.93354
117.18996 -155.64655 4.9999999e-06
119.95237 -146.33548 37.536583
185.71039 -174.18216 83.469246
176.46936 -188.53238 71.287163
124.28062 -149.09587 60.384811
210.0266 -144.25949 87.841835
134.62241 -139.0751 139.70978
157.66519 -126.57556 65.213776
112.87567 -153.54927 66.57309
155.6701 -181.4149 13.726868
180.58684 -164.33839 46.297485
134.58652 -194.1806 66.834625
136.47942 -171.98956 29.58349
143.7168 -173.01349 82.228828
137.25842 -162.84169 69.60347
139.08975 -134.71889 109.92651
208.35706 -138.28773 82.797173
162.26973 -173.96416 121.48543
183.51682 -109.66929 3.2954416
144.82932 -135.59207 147.34564
187.03772 -111.78418 16.766987
200.34921 -147.73402 67.328339
188.14417 -157.95848 34.952541
160.50845 -175.68161 127.16914
153.16223 -210.44299 53.114925
132.41492 -168.59941 30.566357
170.73734 -165.7072 122.92136
137.71844 -145.58315 104.87805
182.19402 -171.08475 7.2132607
152.46072 -154.1333 4.9999999e-06
169.36028 -135.11484 120.83483
163.24554 -140.86612 7.0000001e-06
172.90604 -143.80194 90.252876
141.4099 -162.88828 69.603462
118.92732 -163.77881 19.261412
136.49408 -187.20615 70.390465
131.4856 -159.70401 102.96485
125.09598 -153.14771 141.15184
175.15347 -141.03223 7.0000006e-06
145.39148 -133.7813 51.640495
178.22287 -171.85817 94.413834
123.78088 -168.76353 24.851265
174.67427 -144.97124 91.886551
124.91373 -130.26208 35.445938
126.23557 -183.91122 69.611771
113.00237 -118.65384 2.5999985
204.20221 -127.71512 4.9660673
194.62445 -115.95573 1.4588555
173.29356 -150.45111 106.01256
198.4539 -125.8102 23.459045
215.33221 -138.57561 82.74501
111.51796 -128.68646 23.925735
119.70145 -164.67763 3.0000001e-06
158.86815 -124.35504 132.8634
177.80582 -170.11969 21.45171
163.2963 -173.90147 80.396545
179.90909 -150.50102 91.477089
128.57053 -133.28802 38.511654
168.61467 -148.24225 69.603462
123.46278 -169.86383 75.04245
138.22379 -157.68034 69.603462
153.01312 -143.94977 111.66347
132.41753 -177.90358 42.727444
142.9075 -130.99611 134.12236
133.71271 -199.49213 52.589935
130.39513 -158.58205 106.45528
143.474 -187.3369 74.261398
155.06244 -128.51492 44.654823
131.91214 -153.1852 73.645927
183.11986 -135.86758 85.218918
127.45438 -123.59372 31.992762
139.24681 -178.06078 99.74614
149.69676 -136.38884 72.245598
126.71843 -167.09766 29.024231
145.04903 -126.79733 69.051537
157.76566 -111.47606 1.2e-05
116.62122 -157.94647 31.81036
127.78015 -109.69873 4.4490638
198.15875 -147.42877 76.311401
151.80716 -180.54031 113.87595
166.91718 -137.73235 105.10382
173.81432 -195.2973 87.025345
207.34308 -134.55585 8e-06
146.57144 -132.97537 8e-06
131.92807 -199.09514 55.370361
167.44266 -160.04312 69.603462
172.93962 -185.73618 94.227432
161.53383 -131.60751 43.523987
113.52798 -154.84738 65.596573
184.50064 -128.23792 35.288311
95.020256 -137.46021 87.877502
152.24718 -160.30937 4e-06
111.91515 -138.8889 86.662605
137.71509 -198.33722 85.457672
169.17056 -162.69025 147.34564
127.29006 -146.22504 134.83182
177.66324 -191.07697 66.994652
145.49252 -199.30075 37.468384
163.46758 -166.10478 3.0000001e-06
132.26958 -182.45418 89.938087
92.064163 -137.66238 91.968269
170.96556 -144.68985 82.953018
154.33345 -210.07335 49.50362
178.61069 -158.02968 139.35837
138.04297 -137.1322 53.914631
146.65843 -133.69209 50.704044
142.29144 -190.40543 66.260094
177.26802 -198.93515 65.379692
142.40425 -134.36545 95.679771
110.19212 -152.64017 26.371227
128.8448 -190.74573 82.884537
208.48639 -147.95757 75.944069
223.9236 -141.03041 92.357803
158.93085 -177.21997 141.57997
161.3589 -150.27023 113.69333
164.06668 -196.48892 67.372643
179.86285 -156.20799 76.880753
139.72928 -153.4182 107.811
117.73623 -130.82658 30.234415
137.84805 -166.2251 133.76518
182.72577 -193.70895 61.541153
224.5334 -137.91956 90.527412
146.13124 -134.5358 85.919174
147.40736 -161.45039 3.837235e-06
165.09531 -148.38194 6.0000002e-06
146.26413 -127.72298 133.46266
147.72528 -201.6237 36.826859
136.22658 -179.5401 39.393532
176.81155 -174.40918 1.3617425e-06
119.47269 -129.9613 8.9999994e-06
182.76222 -129.96658 8.9999994e-06
127.40144 -157.3502 71.533348
176.26181 -152.16443 101.90108
115.07457 -149.69032 66.718582
176.35384 -121.83876 9.9999997e-06
153.17041 -128.02348 92.484993
107.42475 -138.28589 87.892708
165.62862 -182.79433 28.486767
173.6246 -193.8208 87.48761
169.02873 -162.09244 69.603462
144.5405 -173.78503 84.208771
200.49539 -140.01685 83.141327
168.68513 -181.20462 30.830683
178.66833 -140.19177 40.375023
154.69937 -120.07993 128.96094
146.3253 -174.91861 114.22166
211.05411 -145.24812 3.1497531
162.74825 -128.33411 145.32448
167.38696 -168.38213 2.2024453e-06
155.28058 -123.1853 96.699631
136.06938 -135.71246 56.864426
206.451 -130.33495 9.8665934
179.73463 -147.28004 41.856281
117.74875 -113.9771 10.035127
174.6944 -201.13266 63.648994
143.43779 -204.69096 48.036583
183.15578 -182.84634 82.60276
142.64267 -134.49361 52.43259
186.58134 -152.07541 67.828293
119.98869 -162.56026 32.480423
139.38135 -131.98599 8.1193866e-06
143.96701 -173.01797 1.2140326
163.85748 -172.47905 101.53981
181.70786 -159.70564 4e-06
136.63902 -190.76855 74.272202
134.98953 -163.29367 144.36493
179.13408 -147.23999 97.732903
169.26242 -167.15091 106.49213
176.01428 -134.64281 8e-06
122.13519 -153.2254 36.782097
181.44183 -170.15256 45.518059
155.04163 -123.06871 147.34564
171.66606 -138.08942 147.34564
138.23254 -144.57066 79.934814
139.4173 -198.8595 87.21344
215.48474 -138.44424 78.628082
124.5358 -182.80502 59.729801
126.51289 -152.82269 37.179497
144.21689 -137.48863 43.532841
189.48515 -127.92865 8.9999994e-06
151.52377 -122.59417 138.45526
118.30191 -151.96268 70.61319
110.56875 -139.61214 88.354576
203.32521 -134.78413 22.759926
122.3727 -155.56116 84.129982
157.7205 -179.731 70.916031
147.93845 -135.11591 105.20242
129.3546 -154.29729 49.169228
190.5997 -147.66141 6.0000002e-06
146.38144 -120.16907 37.051163
144.6656 -181.9402 28.702492
159.47064 -161.18533 147.34564
127.95755 -147.39365 92.477295
186.32101 -183.2628 63.07375
117.05299 -141.7856 75.632477
146.59995 -131.65271 97.781357
179.0937 -140.39238 96.527184
166.88817 -133.13486 54.376022
153.83592 -155.19534 69.603462
161.15874 -125.05546 83.659309
182.47058 -194.74796 59.049477
150.35408 -140.7466 69.603462
173.55592 -131.53983 63.026104
108.36098 -157.01509 22.442362
161.73024 -133.70287 86.798561
167.24292 -199.55666 39.064953
147.03893 -148.28088 6.0000002e-06
137.16304 -130.16919 68.155792
192.58162 -143.82594 69.66217
144.46024 -127.00819 71.686966
191.96149 -162.57242 62.727005
211.94151 -146.53552 77.184814
145.46355 -203.86819 43.206699
133.65543 -179.33749 41.616199
132.95349 -140.7025 120.51033
178.22121 -151.21742 4.9999999e-06
197.07184 -160.54373 4e-06
171.74345 -130.50092 64.384644
144.84239 -204.02058 48.879982
179.28558 -148.76404 6.0000002e-06
101.23156 -144.32784 85.417824
133.3741 -160.87445 69.603462
134.99434 -194.47 44.311867
207.38142 -144.5184 71.525902
140.24751 -133.58992 109.35269
173.00046 -125.61067 35.738701
166.14319 -130.90822 94.769363
187.25946 -169.34758 24.191315
141.13312 -196.04605 75.507782
137.95224 -166.33194 137.31706
163.56415 -194.5354 94.160789
194.78615 -119.01431 22.528799
191.92462 -161.80353 68.013206
184.20547 -152.57408 136.12415
138.7106 -130.64235 89.298004
131.87868 -160.54742 91.049156
142.74068 -102.96483 7.8819385
141.28854 -156.6575 147.34564
183.02243 -152.77957 53.780273
206.81461 -154.35721 17.030262
168.83081 -111.493 1.2e-05
132.4682 -192.29108 85.626602
135.58456 -189.56544 41.942883
176.98325 -189.35593 71.036781
146.42673 -175.02261 105.7738
186.73985 -173.43932 82.158302
184.64236 -170.78465 0.67306364
179.86307 -148.38507 49.67424
163.10825 -204.10342 49.431885
118.55254 -151.01105 34.378082
164.70058 -187.8907 66.396149
125.28497 -154.88725 57.421906
187.21402 -167.48143 30.029375
170.46492 -132.12195 97.615379
152.5945 -181.60439 96.118782
175.87602 -147.35773 102.31984
207.97073 -153.49118 15.815898
136.996 -165.3513 119.70364
157.86824 -125.91771 68.880043
162.4229 -125.66065 87.423729
152.09952 -181.18069 93.848122
166.29913 -170.22707 98.424606
123.67799 -174.56645 66.007645
152.88029 -181.64082 136.2403
204.37814 -154.69391 4.9999999e-06
210.22374 -146.99911 73.952507
107.21827 -150.41982 77.363365
124.57272 -159.57245 34.125412
164.6586 -127.39462 72.005974
121.92892 -140.94096 38.522369
146.1859 -132.08685 98.777908
117.01849 -151.85838 64.998718
147.3911 -131.6123 98.241806
184.91287 -148.26424 86.418388
161.79512 -209.94495 52.850613
172.76248 -200.12848 82.539146
125.01324 -167.48615 84.277359
169.66129 -163.48605 69.603462
184.0575 -116.55604 25.276783
108.09985 -126.61915 0.44466829
192.6553 -154.13167 83.06234
187.24664 -159.55704 34.239758
146.26942 -149.83952 5.077587e-06
139.15102 -127.89639 69.970352
205.42355 -152.39307 18.739922
126.68548 -162.49144 3.0000001e-06
178.84134 -147.19002 46.640621
169.9754 -192.73389 38.381599
169.41408 -166.99754 114.7291
168.13303 -160.20728 107.69617
177.61401 -167.3075 98.404076
142.41214 -138.63193 47.109627
133.93881 -162.21613 131.27911
147.65665 -184.15874 100.87183
211.02539 -145.03423 2.7258401
155.91843 -180.37701 97.76091
170.70795 -127.16531 78.882538
174.44455 -151.65283 104.36568
134.2476 -162.57898 101.81503
138.68184 -128.69504 9.0000003e-06
114.06649 -141.75645 77.386543
156.50168 -174.02322 69.603462
159.36682 -150.44498 69.603462
143.48859 -154.17235 69.603462
137.31572 -166.33446 85.331299
118.44356 -150.64874 34.058411
187.1496 -168.87193 66.061005
179.04343 -157.6366 102.36751
134.46468 -134.24911 59.925087
112.70129 -150.2484 31.546009
180.91086 -145.32385 97.018692
173.09813 -164.57072 74.907242
174.62689 -161.9144 110.5493
183.54144 -183.10985 82.217545
160.13925 -151.48222 113.67316
171.86354 -164.60901 114.71001
202.55148 -153.19614 4.9999999e-06
131.69461 -194.224 71.457184
150.92839 -179.6391 147.05148
131.46451 -147.14397 98.750099
149.53244 -144.26938 69.603462
175.3577 -195.23163 70.756683
150.71722 -180.2216 81.440552
186.61607 -176.54948 80.831665
205.80307 -141.82471 79.442276
139.51851 -139.22891 90.421844
152.1315 -209.10687 56.413528
186.85985 -156.43939 73.775467
175.74106 -202.2478 55.950157
194.31667 -157.68814 4e-06
173.51898 -192.8596 87.570473
124.80802 -152.8524 111.31142
160.13829 -130.09274 96.976814
166.10701 -148.45941 147.34564
168.20984 -128.38696 89.980927
132.82437 -132.07954 67.8498
201.16901 -162.56195 19.90881
180.85776 -132.85707 39.277351
170.19269 -200.44199 71.185814
181.48083 -171.8683 21.879276
177.95398 -146.05908 49.152138
178.99777 -137.14529 40.43819
127.55922 -155.6738 113.33768
155.132 -207.34451 61.791237
160.34213 -112.7267 1.2e-05
194.74097 -148.95155 77.101898
123.95982 -113.9757 20.635283
113.63252 -165.57016 15.507446
189.97081 -141.57053 81.374802
164.69142 -130.32687 117.10567
170.76265 -153.85565 69.603462
135.82121 -164.14655 142.15482
126.91032 -157.2955 88.574303
152.34203 -130.49391 98.770462
141.98294 -104.93071 12.200816
127.73283 -153.9252 74.956429
135.39336 -163.70779 135.53114
185.4819 -158.58775 85.789253
185.28419 -173.71002 53.32412
176.94888 -135.96439 58.02739
146.73941 -142.17667 6.9999996e-06
135.06323 -145.48894 102.07417
158.43121 -138.86455 69.60347
135.51328 -195.35883 76.588196
153.64647 -133.06165 8e-06
131.51045 -161.5994 3.8397534e-06
166.84425 -183.25484 31.270618
142.59464 -131.30118 117.35725
189.46875 -148.36792 37.888199
133.74805 -139.50453 55.326248
165.86899 -109.0425 19.811602
143.46765 -195.80334 62.086697
173.37857 -128.39824 70.979744
131.43703 -116.50809 22.724293
142.92647 -195.91035 89.383255
158.59218 -134.8364 44.306396
137.21243 -166.48802 69.603462
114.93541 -152.17456 71.777603
171.6008 -140.10657 96.231094
137.63376 -176.78658 37.07719
107.23504 -140.97964 82.11058
175.01828 -154.75305 102.49244
136.84464 -171.37524 2e-06
139.43916 -136.98785 96.369751
169.50632 -110.04374 17.829298
150.1084 -192.28772 32.178024
168.36041 -127.00089 75.572021
162.05894 -131.31119 99.525818
115.96163 -153.18167 84.825104
158.10539 -208.74467 57.07103
172.99731 -138.84464 127.78203
158.7334 -137.52002 69.603462
180.18408 -163.28546 35.373058
183.23994 -158.52892 4e-06
183.44041 -156.61633 4.1010971e-06
164.78909 -193.80573 93.55703
165.70656 -155.05765 147.34564
155.05304 -148.06949 5.8950454e-06
119.29143 -153.47748 63.5327
160.90778 -191.05762 98.329247
151.82578 -180.5594 130.96513
163.40588 -135.09265 48.888725
153.38344 -127.90889 84.777832
182.3497 -121.87711 9.9999997e-06
168.56685 -134.65167 102.17566
210.7623 -149.66336 3.9740629
124.27162 -152.30234 125.20216
127.18347 -191.97641 57.996777
136.60257 -186.73572 92.661781
159.86949 -181.6104 18.924517
191.78299 -141.02541 80.918404
173.70859 -108.45284 1.2340112
132.35918 -160.59619 108.68137
141.19484 -181.8914 35.261116
131.64108 -186.66652 86.397331
206.33438 -150.94025 70.905449
124.68356 -140.10733 69.236389
118.84509 -144.92314 6.0000002e-06
127.13481 -136.78845 68.324768
157.9599 -196.33147 95.293022
178.18674 -144.16647 109.71213
132.96239 -162.16049 77.471931
152.44673 -130.85867 99.425598
172.36157 -200.16241 67.002312
182.19928 -154.55763 102.4061
129.42532 -151.74135 95.897919
166.05392 -139.6413 82.982452
183.38196 -159.24962 52.875504
168.63435 -125.29678 9.4586976e-06
162.13969 -127.71005 117.67024
111.22052 -129.66824 24.277367
176.48126 -143.93346 41.131886
215.61205 -141.58838 88.560547
143.6805 -180.68359 100.34237
210.76251 -146.22227 1.6155292
148.77686 -157.41284 69.603462
166.39075 -163.5029 147.34564
156.83255 -205.69885 49.292961
185.53276 -143.68497 85.786835
129.17717 -193.41229 80.259377
147.30923 -136.12042 105.71747
201.20145 -132.28363 24.13953
146.29453 -127.69334 135.77917
187.75668 -142.9175 6.9999996e-06
174.79892 -162.88222 75.632027
147.76556 -171.66341 69.603462
134.47565 -139.21822 104.9223
166.8143 -173.42169 3.3516839
163.66322 -135.28831 104.97499
173.87698 -203.71945 58.881161
149.70834 -197.82567 91.036079
181.62059 -131.89026 37.917931
136.81126 -118.86253 29.846592
135.72052 -134.4348 8e-06
154.09776 -182.9511 78.466103
200.39732 -134.32494 27.397141
123.81423 -110.62383 7.9782114
163.01962 -162.45644 3.0000001e-06
181.41191 -155.29816 109.14941
137.62495 -139.69456 7.0000001e-06
152.21431 -205.1879 80.962219
121.15885 -112.32379 15.578211
170.73233 -145.34993 80.671982
141.4886 -179.45358 2.2564483
129.75839 -193.87787 64.407707
137.60229 -115.4733 24.920923
146.64014 -175.24149 137.84207
144.79967 -101.18488 5.5422759
126.10352 -138.6228 66.596306
138.15218 -177.76166 36.837021
159.02487 -204.84358 49.099773
141.42377 -169.89203 111.76662
145.82846 -174.40909 109.45956
208.51849 -143.62469 17.870829
168.63301 -200.20621 73.308258
105.11731 -159.16072 8.8950729
122.38176 -164.61549 31.523367
157.38245 -180.97163 16.057745
191.73073 -139.69089 79.17189
183.5546 -190.30365 56.204876
133.48254 -160.86942 98.926643
126.8792 -149.78973 5.3916315e-06
123.86316 -163.08931 61.516968
186.34355 -155.32385 4.9930341e-06
181.05206 -131.77109 75.195267
149.22847 -201.34116 35.201523
165.48105 -184.29434 29.838047
100.53926 -148.43103 5.7796707
162.20419 -174.02808 132.34215
137.60394 -197.92989 65.332245
170.86974 -179.79411 1.5547242
115.60657 -162.05176 28.464802
129.46759 -111.16104 1.2e-05
180.34863 -172.23283 1.5783237
188.69 -168.36909 22.196217
182.14389 -163.17082 34.469692
209.47055 -147.75729 15.364058
140.37001 -133.47046 126.55869
133.81754 -142.33284 147.34564
136.32095 -165.44939 81.676331
150.55069 -127.97263 91.700829
197.44548 -119.65993 0.88967139
124.37254 -162.79984 3.0000001e-06
154.41086 -181.62753 124.91063
192.64844 -165.32642 9.746027
140.23615 -173.31638 13.768419
152.22136 -181.05083 100.74442
123.37233 -177.78625 63.188786
121.76778 -167.2692 29.069008
147.14685 -127.22707 8.9999994e-06
108.57222 -158.7209 21.877522
149.4473 -179.03413 78.332771
146.03104 -135.76086 48.778114
149.1664 -135.84586 46.599979
169.64536 -152.08981 109.64906
130.5721 -140.98361 96.659569
161.9245 -135.02744 48.179066
178.9449 -140.16866 56.298084
150.23672 -123.84921 109.91464
211.25641 -142.72679 74.124069
158.20901 -122.95644 9.9999997e-06
182.94774 -134.21764 72.051605
161.6041 -174.61324 140.66739
139.74704 -156.25027 4.3352147e-06
152.07883 -180.81889 122.00565
143.7063 -130.21719 110.19659
172.21294 -138.04025 137.90294
134.65784 -163.65115 84.184502
190.60837 -118.62943 1.1e-05
135.35199 -138.36366 118.84055
98.791023 -138.65239 88.019531
187.23146 -141.18288 39.09409
203.04968 -139.14496 82.892242
133.84032 -197.63516 79.263596
168.15175 -168.22847 107.14085
184.21326 -160.18504 32.718491
179.75108 -195.17757 53.163033
127.61156 -137.23415 65.481667
182.77994 -171.74484 8.2009983
213.04817 -143.01311 79.832642
141.39943 -133.68007 41.822662
164.1516 -125.78169 87.213387
148.9257 -201.75035 35.69841
177.81671 -198.13872 65.226639
181.55008 -147.6156 144.78108
106.0593 -143.62856 22.997387
190.88571 -158.66341 79.798019
121.58131 -167.19215 2.358506
125.05901 -153.1098 108.06023
136.67279 -188.09442 72.457497
154.66739 -122.66685 41.565384
154.33823 -119.84975 142.63754
152.65871 -181.54315 99.558228
176.83592 -123.28854 9.9999997e-06
143.34663 -107.08502 18.731117
163.24924 -134.75702 44.512932
166.948 -169.40225 121.60043
131.52095 -156.21738 69.603462
150.11629 -136.96936 69.706749
200.57959 -144.94096 29.158009
110.63051 -146.4436 86.34713
144.30714 -126.4968 78.706749
136.49707 -141.16734 101.35208
149.45496 -131.13913 53.342293
129.731 -157.90097 120.96168
136.40227 -110.76301 15.964314
148.63403 -177.98491 69.603462
175.26573 -172.52132 37.652885
180.61618 -156.0741 129.37823
154.60304 -143.45067 69.603462
168.1846 -199.18512 39.626724
130.86612 -159.93736 39.068771
122.9916 -160.1772 72.889389
189.30673 -111.13448 11.287076
189.63496 -156.2738 68.727608
175.28845 -161.26929 121.65443
137.32835 -166.24757 88.033203
168.92395 -167.47549 123.18377
148.31055 -130.40953 95.33078
148.37135 -101.23486 11.010285
138.89001 -186.26686 72.220955
127.22208 -172.40779 7.3096843
212.61545 -146.25723 76.509987
125.27312 -109.78751 12.181336
199.80969 -127.25475 21.936382
190.52643 -167.50018 23.027313
149.58543 -178.62103 93.346367
231.62158 -138.96535 89.225296
117.94467 -166.30736 21.621096
141.2209 -191.45032 65.214661
224.02431 -137.36147 91.999084
182.63472 -157.35168 92.05114
147.33771 -179.8844 23.516737
113.61026 -148.36678 74.170959
171.33255 -152.67133 147.34564
154.54642 -131.56183 100.20316
142.06325 -188.26485 68.049911
177.20877 -134.13023 61.091473
167.74265 -158.46625 108.34841
126.22233 -156.5351 4.097049e-06
141.20734 -123.85723 9.9999997e-06
189.31445 -164.44119 3.0000001e-06
172.13943 -133.37785 57.10273
184.50937 -128.3633 9.0000003e-06
146.12122 -196.56836 89.98288
165.52246 -198.26314 68.093697
142.12189 -202.48065 60.720306
91.529068 -141.17336 99.862259
161.47552 -127.02893 120.9624
163.6539 -172.61438 138.95819
174.29674 -124.47215 9.9999997e-06
137.86681 -173.33957 2e-06
183.99945 -145.16852 90.071785
129.94888 -169.49527 2e-06
172.453 -200.25708 79.29097
125.82512 -149.51703 74.178101
147.08795 -126.91963 130.80832
131.67853 -165.29791 40.882805
185.3764 -136.80879 72.274994
185.92534 -147.1158 38.321304
139.66776 -146.64366 71.026237
130.29759 -143.29234 103.15467
174.83258 -140.67996 41.492004
151.24467 -162.86357 147.34564
140.17195 -175.46115 103.69873
180.08095 -157.50459 81.115509
131.44858 -157.08376 69.603462
210.1826 -145.04158 72.972687
117.55733 -164.27913 16.67223
152.51509 -129.57649 94.140625
130.81308 -189.18042 85.174934
122.85124 -157.83513 74.433121
188.36974 -110.68433 11.887353
105.30539 -136.96727 8e-06
125.75819 -137.52631 76.682526
109.06839 -125.68552 10.6608
145.65564 -189.94009 74.881683
124.65956 -140.41362 82.101135
111.63036 -120.2829 4.2003126
110.9898 -151.85834 4.9999999e-06
102.14771 -151.1288 6.7358012
184.61124 -155.03311 4.9999999e-06
149.21034 -153.82726 147.34564
177.54311 -137.07397 40.409679
139.66553 -168.08893 116.28127
137.37209 -166.69675 77.091248
168.01189 -179.27295 28.094894
148.66885 -203.0256 49.061962
153.55054 -203.83994 86.556763
158.16434 -147.94151 5.9899999e-06
160.01379 -177.04211 81.851402
151.65242 -131.20786 51.883789
118.40369 -162.65172 67.594627
144.80814 -137.04019 147.34564
134.04492 -139.63821 123.08947
142.8188 -199.39572 71.653122
109.15835 -142.23514 27.816322
192.95021 -151.17744 33.613319
184.45247 -154.05124 74.449959
176.65865 -136.60431 57.150425
140.23001 -203.4938 59.227318
142.87204 -195.33278 89.75412
122.92885 -168.41397 27.656174
167.63744 -184.26385 33.575134
131.1008 -142.50909 136.07849
139.74467 -168.1701 135.97484
163.15935 -115.58232 31.794746
194.12292 -157.63078 4e-06
141.45059 -173.54112 10.306486
107.80728 -146.00288 78.006813
118.12877 -159.74008 62.018124
132.53777 -160.77933 138.11475
169.94748 -166.4774 125.06689
158.45395 -123.93026 121.32068
202.8329 -133.13783 22.19981
104.76776 -130.53098 11.522099
147.08414 -148.76497 147.34564
168.33502 -168.12625 101.21619
186.10036 -124.1796 33.147408
148.54637 -199.89488 74.928474
131.97514 -143.1716 54.271027
180.87488 -162.91283 46.998367
191.25761 -149.55946 76.362274
173.11017 -145.22221 104.81085
174.18065 -163.03339 86.544403
176.52328 -111.98246 15.508657
171.47723 -178.71362 31.276905
166.75209 -195.74194 74.622894
164.46347 -138.13301 82.671135
144.11122 -104.04327 1.3000001e-05
183.14612 -159.69278 90.783539
169.01984 -167.38196 129.81308
170.01244 -144.48143 81.002312
180.95255 -172.51773 6.2263956
109.90366 -163.76494 17.186039
172.65071 -137.21646 42.897003
129.19987 -137.78502 91.153595
134.37898 -191.26132 67.331047
175.6593 -200.59024 53.786102
154.8299 -199.95982 90.182335
131.32933 -138.05032 58.315998
144.16234 -101.4373 5.1518764
183.81175 -166.4444 29.512001
126.94864 -146.55798 120.74236
195.95398 -137.35922 31.718716
204.21487 -139.56262 84.260757
145.52679 -165.6342 109.58332
119.48254 -159.2114 70.364548
181.52939 -150.89075 72.206627
141.75899 -179.16167 2.2883291
170.68135 -140.6143 92.551544
144.36028 -172.90344 142.59616
205.58958 -129.28691 1.9492331
171.80643 -135.26826 101.23183
159.81731 -136.80693 73.948959
150.89764 -111.52417 28.33193
131.55171 -148.03789 45.51263
172.5179 -144.0885 88.516342
168.60175 -193.29753 64.453766
146.57841 -201.29008 76.963371
202.16219 -139.37239 82.919128
164.75797 -179.339 0.019197825
117.10736 -163.34628 30.458752
165.64514 -202.98235 49.133396
194.27002 -118.41371 22.958725
154.67715 -131.02016 98.997765
179.7113 -138.96472 94.97377
162.48483 -137.46985 107.57518
153.27866 -127.77507 9.0000003e-06
135.8689 -163.34171 3.0000003e-06
145.23714 -202.66962 63.891735
110.56142 -165.25296 12.313989
162.19049 -167.70906 111.30202
145.28856 -193.0847 70.620293
150.10811 -156.53874 4e-06
132.48207 -144.84454 6.0000002e-06
148.57506 -177.26675 101.95526
103.697 -148.2666 80.206657
129.7419 -152.57886 96.266342
191.33914 -146.01411 65.408493
180.88861 -109.79936 4.2285862
148.91985 -135.7448 75.841431
136.39206 -137.34947 131.86444
111.68932 -163.31339 19.244864
180.22772 -147.06563 101.01998
113.70334 -121.31093 19.095078
168.33804 -127.18588 66.690643
153.98935 -177.28979 1e-06
181.57707 -109.9165 3.5689096
111.93863 -128.22937 9.0000003e-06
198.00562 -132.1064 8e-06
153.76917 -194.79782 32.506237
183.07748 -177.39142 48.517715
139.46812 -169.40442 104.23838
192.13699 -141.211 81.172516
184.82886 -179.07791 54.764984
134.15501 -139.53087 133.19826
119.99246 -116.48102 1.1e-05
160.71906 -139.14014 109.10336
136.8028 -165.72375 87.623177
203.15308 -135.67056 8e-06
163.7892 -180.19272 103.05904
120.42034 -156.58636 78.618118
136.34129 -131.56804 64.567886
183.63963 -109.80836 3.533788
165.00583 -171.38724 100.86351
160.91826 -120.02679 9.9999997e-06
150.80128 -209.51651 50.605293
125.18439 -152.62248 91.919975
181.53716 -190.20532 72.06852
140.10207 -181.81186 98.913452
156.69936 -143.26599 6.2656204e-06
