# .PCD v0.7 - Point Cloud Data file format
VERSION 0.7
FIELDS x y z
SIZE 4 4 4
TYPE F F F
COUNT 1 1 1
WIDTH 1560
HEIGHT 1
VIEWPOINT 0 0 0 1 0 0 0
POINTS 1560
DATA ascii
433.99664 -426.01047 7.499999
438.02448 -426.0213 7.499999
442.01123 -425.98367 7.499999
446.0412 -425.99667 7.499999
449.94861 -426.0231 7.499999
454.00412 -426.00192 7.499999
458.14325 -425.59094 6.6276069
461.50314 -426.91013 6.1178551
426.57803 -423.28409 6.0151415
430.10071 -422.28622 6.3562112
434.01352 -421.50558 6.5805197
437.96884 -421.22815 6.6843972
442.3114 -421.52853 7.0319595
445.98123 -421.29608 6.642252
449.8934 -421.78323 6.4679546
453.95822 -422.77032 6.2365994
456.52145 -423.68289 5.9071989
439.88858 -419.98703 5.729928
441.18173 -419.92197 5.8458242
458.23364 -508.34509 9.5941658
461.57004 -508.36755 9.5446215
451.20767 -504.79141 9.7771006
453.95969 -506.73904 10.039694
457.31689 -507.82446 11.195167
462.75912 -507.72336 10.992929
466.0723 -506.54678 9.9951
468.8205 -504.6875 9.8310394
447.86011 -500.3111 8.9250774
449.25684 -502.23773 10.089831
470.83405 -502.28915 10.160696
472.17899 -500.34692 9.1512785
414.0495 -497.06461 9.9337444
417.99103 -498.2934 10.047006
422.07864 -497.88925 10.001045
424.61234 -496.55423 9.7263288
447.16919 -497.96353 9.9680042
448.15381 -499.59186 11.559591
471.90805 -499.79251 11.846989
473.00131 -498.02771 10.016709
407.99176 -492.02444 8.7184887
410.02313 -493.97714 9.9587755
412.263 -495.8363 10.81468
426.51422 -494.04846 10.024014
446.23367 -493.96597 10.039535
474.05936 -494.00586 10.054385
406.73065 -489.93439 9.9494438
408.15152 -491.78522 11.201816
427.73569 -491.24966 10.803372
428.47821 -489.60477 9.7690468
445.84119 -490.0256 9.9951487
474.09836 -489.98587 10.045536
404.94873 -486.02084 10.008783
429.2095 -485.99088 10.034769
446.08786 -485.96924 10.043812
471.94739 -484.09744 11.898973
473.22791 -485.95087 10.029509
403.77957 -481.34271 9.6357651
404.19287 -483.01059 10.601128
429.70715 -481.98361 10.017422
447.13748 -482.29932 9.7182074
448.54788 -480.90671 11.246042
471.2951 -481.48483 10.688746
472.42514 -482.61664 9.1655092
403.68622 -478.05862 9.9741354
404.07034 -476.51309 11.732491
429.36633 -477.96451 10.057446
447.76007 -478.60803 8.4780865
448.90817 -477.85629 10.34874
470.32312 -477.95035 10.078801
403.89957 -475.60587 9.1405754
404.61972 -473.72003 10.138
427.79132 -473.16794 11.613706
428.82452 -474.09393 9.8298244
447.93643 -473.914 8.1737919
448.86258 -474.06219 10.188591
467.36066 -473.1965 11.131616
469.17572 -474.26477 9.5675325
406.33951 -470.03342 9.9788218
408.3201 -468.43958 11.575005
427.7934 -471.04544 11.667429
429.01813 -469.89606 9.8005037
447.92368 -469.99963 8.2268143
448.64056 -470.00513 10.251634
466.48828 -469.86435 10.114058
468.43829 -471.22464 8.5466347
407.48389 -467.04568 9.0122156
409.21072 -465.65271 10.464631
429.78571 -466.03302 10.008346
447.9725 -467.37155 8.1270409
448.7164 -465.95526 10.013489
463.9487 -464.3952 11.859787
465.41791 -466.03259 9.8947458
410.70605 -462.48175 9.5580206
412.83466 -461.18463 10.782407
430.32288 -462.03299 10.047591
449.51627 -461.95013 10.021169
463.59473 -461.47739 11.273569
464.85269 -462.19168 9.4651594
411.77725 -459.73093 8.1866999
414.12558 -457.98254 9.907505
430.03882 -457.99051 10.020678
450.84958 -458.43857 9.5714312
453.49673 -456.98776 10.724569
457.85925 -456.29984 11.479619
462.38831 -457.76169 10.162281
464.26297 -459.41693 8.5513926
415.14423 -454.36917 9.3872375
416.68481 -453.30481 10.979496
426.98227 -452.93198 10.757457
428.97235 -454.42328 9.5454903
451.91602 -455.92139 8.1381254
454.405 -455.29858 9.0463028
458.01846 -455.0426 9.585824
460.89166 -455.45755 9.075264
415.88162 -451.77625 8.2217398
418.18069 -450.6424 9.673193
422.03305 -450.20724 10.03004
425.48087 -451.10989 9.4987297
428.05298 -451.95572 8.0897789
451.68945 -504.30554 12.507092
454.19644 -505.38669 13.76513
457.98346 -506.48312 14.071177
462.01273 -506.27802 14.06074
465.745 -505.1553 13.736878
468.34052 -504.22623 12.511123
450.41306 -501.83777 13.867961
452.82013 -503.38589 15.259171
467.04288 -503.39435 15.265481
469.65485 -501.88507 13.855996
414.8056 -496.58676 13.151541
418.05179 -497.15503 13.951143
421.70377 -496.91754 13.620531
424.23029 -496.19354 12.305807
447.68616 -497.0083 12.720056
448.89319 -498.26157 14.35161
471.27997 -498.52719 14.625725
472.49994 -497.25241 13.188172
410.62094 -493.28653 13.708241
413.52957 -495.0242 14.528936
416.78955 -495.83389 15.736439
422.89264 -495.44351 15.16058
425.36618 -493.80069 13.828288
447.31104 -493.84787 13.379849
448.44565 -494.29047 15.344666
471.81799 -495.32141 15.746251
473.04456 -493.92242 13.911103
407.24118 -489.2655 13.665778
408.86041 -491.00424 14.534868
426.89114 -490.12204 14.124993
428.11569 -488.48917 12.341251
447.11215 -489.98575 13.788449
448.22034 -490.1629 15.699818
471.78601 -488.79947 15.770445
473.06238 -490.09805 13.949263
405.94855 -486.03073 14.008213
427.50906 -486.32739 14.974146
428.44925 -485.74179 13.13879
447.20767 -486.18909 13.432724
448.78391 -485.3154 15.222016
471.04477 -485.46399 14.656116
472.58252 -486.68066 13.161283
403.98218 -480.08398 12.061039
404.90948 -481.99109 14.00689
427.79858 -482.21527 15.621479
428.72675 -481.96753 13.685677
447.78824 -483.53647 12.37206
450.07367 -482.15845 13.83081
453.68307 -481.23105 15.355458
456.89993 -480.43491 15.849783
466.95972 -481.0282 15.265186
469.58868 -482.31448 13.70119
403.96628 -478.99768 12.109182
404.79407 -477.96234 14.084084
427.2074 -477.44919 14.828255
428.48962 -478.46768 13.136144
450.93964 -477.93594 13.285713
453.34634 -478.45715 15.206696
456.75711 -479.79507 15.860453
463.65427 -479.01279 15.854746
466.20105 -477.99359 14.507663
468.58398 -478.48245 12.569541
405.96429 -473.95892 14.058413
408.27774 -472.31497 15.723034
423.22546 -472.74728 15.665915
426.10812 -474.0318 14.031492
428.07312 -475.78067 12.229154
450.74588 -474.05591 14.000995
452.03787 -475.89703 15.714164
466.72839 -474.03726 13.929088
468.05811 -475.86679 12.049482
407.22296 -471.06805 13.110123
409.7038 -469.68829 14.272031
413.38318 -468.55728 15.566286
416.84824 -469.05743 15.974751
422.56436 -471.1492 15.677393
426.36819 -470.06036 14.052702
428.0932 -468.41614 12.199414
449.72522 -470.02896 13.992683
466.34375 -470.00449 14.021894
410.97913 -466.45844 12.885431
413.06662 -465.99069 14.640421
427.53201 -467.3017 14.571856
428.70795 -465.57379 13.788522
449.54282 -465.9516 13.97056
463.93237 -464.46478 12.232575
465.58289 -466.02081 14.008743
411.91385 -462.25439 15.182102
412.7095 -462.0105 13.7521
429.58005 -462.00439 13.997287
450.38516 -461.94763 14.030388
463.36551 -461.59039 12.924275
465.03018 -462.16571 14.622066
413.651 -457.95618 13.958474
429.33127 -457.99683 13.983861
451.58566 -459.32162 14.325229
453.42438 -457.29181 13.766994
458.23724 -456.30588 12.837559
461.89041 -457.87601 14.026392
464.36746 -459.52292 15.203516
414.91925 -454.23178 14.402315
416.82556 -453.15768 13.053828
427.03177 -453.24167 13.8904
428.4039 -455.29279 14.255859
455.2814 -455.74594 14.638178
457.91385 -455.72403 14.673779
460.11588 -455.93707 14.901038
418.34943 -451.21698 14.257708
421.99594 -450.69937 14.102061
424.99771 -451.37021 14.067053
455.39117 -504.23849 16.25963
458.15598 -504.56833 16.570238
461.80588 -504.46017 16.487906
464.37201 -504.1261 16.153955
451.37949 -500.69601 16.569548
454.16541 -501.83823 17.676363
457.91422 -502.19354 18.612417
462.10446 -502.2323 18.541359
465.86414 -501.797 17.625132
468.61066 -500.73596 16.570637
419.36133 -496.03406 16.062334
420.02341 -496.00369 16.025246
450.78339 -497.81064 17.342428
453.40207 -498.40109 19.252571
456.23526 -499.8241 19.907457
463.71014 -499.91467 19.935753
466.771 -498.63803 19.305805
469.5 -497.82831 17.503426
411.62894 -492.37128 16.428596
414.2951 -493.28455 17.282452
418.01343 -494.01981 17.94663
421.82932 -493.78864 17.610432
424.46591 -492.79034 16.616367
450.34146 -493.95273 17.6817
452.49976 -494.01077 19.625511
467.82227 -494.59033 19.865301
470.04126 -493.9816 18.016054
472.0463 -492.86554 16.070349
407.85187 -488.26193 16.223732
410.23602 -489.72156 17.652885
413.5542 -490.92194 19.111547
417.54877 -491.71188 19.788309
422.76868 -490.49475 19.321566
425.05011 -489.80688 17.399973
450.12662 -489.99136 17.732563
452.64236 -489.75473 19.617544
467.53516 -489.32736 19.720657
470.02689 -490.05939 17.887388
472.05069 -491.28043 16.078594
407.2981 -485.6134 17.061565
409.13141 -486.33929 18.841372
423.733 -486.42896 19.774818
425.57275 -485.94073 17.857971
450.444 -486.24411 17.205679
453.78439 -485.76123 18.783493
457.69702 -484.7113 19.44108
462.18719 -484.54071 19.632767
466.35727 -485.61227 18.918247
469.30914 -486.32172 17.190973
406.82925 -481.92786 17.42757
408.63467 -482.07318 19.398113
423.84244 -481.75534 19.895527
425.9155 -481.98624 18.01391
451.58148 -483.69992 16.245584
454.30844 -483.05161 16.88999
458.10083 -482.27313 17.438622
461.94815 -481.98843 17.806355
465.67508 -482.46982 17.182949
468.28467 -483.66095 16.301344
406.83582 -478.09583 17.237175
409.06805 -477.74854 19.209976
422.94101 -477.4295 19.2248
425.45355 -478.18219 17.500687
454.35034 -477.3107 17.115622
458.04913 -478.24353 17.74394
462.02963 -478.29428 17.800194
465.03467 -477.17221 17.14534
407.36545 -474.90079 16.636477
409.91495 -473.92636 18.118757
413.80792 -473.09061 19.256853
418.28082 -473.32147 18.894712
421.82059 -474.2601 17.660011
424.50702 -475.40991 16.47389
451.4614 -473.24734 17.3587
453.35507 -474.89084 18.606062
458.03464 -475.76334 19.292248
462.47784 -474.52399 18.970158
465.96173 -473.88873 17.49548
410.88168 -471.19168 16.712816
414.24387 -470.21878 17.21331
417.96381 -469.89944 17.268833
421.96643 -469.5462 17.506401
425.14081 -468.85236 17.420229
450.52948 -470.01245 17.960733
463.96512 -468.29196 18.432224
465.60526 -470.0361 17.829649
414.36737 -465.86484 17.469343
417.62833 -466.23584 18.849968
421.41928 -467.56451 19.112335
426.84796 -466.58795 18.397804
428.5571 -464.92548 17.297306
450.32172 -465.99658 17.983973
463.3974 -465.67563 18.439384
465.62326 -466.20859 17.079472
411.95627 -462.21317 16.150871
414.17047 -462.01541 17.803019
416.00989 -463.98724 18.602741
428.94144 -461.97198 17.996832
451.017 -462.34354 17.554686
453.46988 -460.97186 19.012327
458.65668 -460.74927 18.741045
461.98447 -462.03366 17.791113
464.89697 -462.25449 16.658665
414.57465 -458.37897 17.202785
416.96133 -456.97903 18.327438
427.26627 -457.20648 18.935535
428.7713 -458.32828 17.404266
451.66785 -459.57224 16.562027
454.17563 -458.17166 17.39884
457.90283 -458.04303 17.230621
461.78003 -458.5347 16.660612
464.28882 -459.61536 16.336445
415.23477 -454.64294 16.335135
418.20892 -454.2868 17.128658
421.84958 -453.98846 17.878769
425.83411 -454.27109 17.683678
428.2673 -455.5343 16.49379
455.58051 -455.91724 16.174795
457.02765 -455.9346 16.122019
418.82455 -451.72711 16.139858
422.04123 -451.51254 16.362486
424.60617 -451.6889 16.426657
458.86853 -500.21393 20.122746
461.22906 -500.22058 20.152672
455.01175 -497.35526 20.490162
458.02527 -497.97739 21.094963
462.01007 -498.06223 21.149595
465.30551 -497.38257 20.618603
454.47998 -493.95355 20.840508
457.97125 -494.02829 22.084747
462.05243 -493.99057 22.238131
465.88852 -493.96671 21.056957
411.82553 -488.16489 20.143564
414.39432 -489.15793 20.677134
418.04538 -489.80786 20.967812
421.26956 -489.48831 20.576586
454.57504 -490.11188 20.691061
458.02872 -489.96469 21.784472
462.01895 -489.95358 21.974752
465.69089 -490.14731 20.91721
411.01221 -485.63922 20.675468
413.92957 -486.0144 21.924589
418.0195 -486.03784 22.418221
421.82639 -485.95972 21.16951
455.25293 -487.34265 20.279669
458.14813 -486.63382 20.697412
461.8945 -486.51193 20.788591
464.91382 -487.09039 20.394384
410.65231 -482.00089 20.988157
413.99927 -481.99628 22.511686
418.0318 -481.98889 22.703905
421.92145 -482.02353 21.183271
410.97296 -478.24304 20.661953
413.97882 -477.97501 21.762426
418.04773 -477.92471 21.71096
421.25891 -478.36945 20.724728
454.79727 -476.65182 22.447107
457.97211 -477.07867 22.080914
461.36017 -476.77737 22.747118
411.65942 -475.68924 20.164257
414.18314 -475.02191 20.535465
417.6572 -475.2103 20.511892
420.16864 -475.89838 20.11326
451.22318 -473.21799 22.368435
453.02209 -475.03992 21.552481
458.6123 -475.90317 20.225832
462.81921 -474.81747 21.549561
464.26132 -472.95856 22.488604
418.75912 -468.63013 23.029287
422.07376 -469.08911 22.138187
425.57922 -468.82001 22.446388
428.04208 -468.03076 23.863163
450.17889 -470.035 21.978643
464.61487 -470.00168 22.022879
415.43948 -465.18887 22.484318
417.53635 -466.81772 21.519615
420.80127 -467.72 20.470881
427.10696 -467.03116 21.153584
428.81503 -465.57611 22.41345
450.2847 -465.96271 22.036268
463.37219 -464.92847 21.762718
464.43979 -466.86737 22.187593
414.88174 -462.05621 22.039871
429.16837 -462.0083 22.046757
451.24387 -462.85379 22.524033
453.7757 -460.97131 21.892534
458.07819 -460.80173 21.970932
461.40253 -462.76273 22.069336
415.31479 -458.83618 22.056091
417.30594 -456.84052 21.929218
427.08084 -457.06561 21.667162
428.65393 -458.80682 22.59804
438.71884 -457.10056 23.773289
441.47159 -457.11697 23.768986
454.72061 -459.90332 23.81649
456.23199 -459.94781 23.942465
419.34918 -455.71033 22.153864
422.00888 -455.17892 21.959064
425.20007 -455.55759 22.302364
435.44559 -453.16299 23.865946
438.03506 -453.97318 23.410158
442.04388 -454.01102 23.423855
444.43271 -453.48038 23.883562
435.02899 -449.91019 23.748423
437.97119 -449.99274 23.129295
442.00632 -449.97562 23.220308
444.61481 -450.08606 23.833542
435.08289 -446.2562 23.771343
438.01105 -445.95987 23.286293
441.9765 -446.06915 23.491516
444.315 -447.14276 23.898466
435.65744 -443.60303 23.938944
438.17786 -442.91641 23.746208
441.0401 -443.22781 23.815823
451.95245 -476.05676 26.483971
454.02588 -477.25241 26.041859
457.98285 -478.53455 25.971085
462.17862 -477.77283 26.003328
464.17746 -476.33282 27.084314
450.61032 -473.97797 25.995687
452.23642 -475.79181 25.314802
463.80719 -475.69968 24.511805
464.85025 -473.94916 26.051323
415.59555 -468.45712 26.846016
417.95853 -469.72119 25.943893
421.97986 -470.93121 25.960739
426.0676 -470.29803 25.957645
428.55569 -468.67303 26.462618
438.47504 -469.12119 27.555902
441.65137 -469.1091 27.539303
446.13263 -468.23126 27.896692
448.95166 -470.01511 25.973322
465.51773 -469.99728 26.020784
414.69232 -466.0062 25.97934
416.16971 -467.84308 24.323656
430.0683 -466.02686 26.017876
434.87558 -465.20438 27.451838
437.94406 -466.01205 26.460852
442.03067 -466.03931 26.330116
446.07281 -465.77066 27.121653
448.72015 -466.08328 25.307789
463.68909 -464.41064 25.480627
464.82498 -466.28552 26.129417
414.06015 -462.01431 25.99539
430.92944 -462.17584 25.480585
433.9953 -462.03772 26.386477
438.00409 -462.02252 25.089697
441.97809 -461.96838 24.963102
445.99786 -462.04089 25.68182
449.53995 -461.81335 24.868134
452.28159 -460.19479 24.156261
459.24304 -460.38284 24.678226
461.98032 -462.02295 26.069622
415.09637 -458.74963 26.024273
416.86169 -456.7789 25.849783
427.8356 -456.14328 24.12372
430.43329 -457.84753 24.77846
433.9743 -458.01337 25.006241
437.55594 -458.56393 24.307787
442.44608 -458.74078 24.249714
446.00497 -458.00705 24.776262
450.02664 -458.07687 25.081572
454.03748 -458.08813 25.645611
457.80936 -458.4664 26.398565
460.52954 -459.45212 27.393755
418.72797 -455.01761 26.381628
421.98877 -453.77094 26.047714
426.00229 -453.90036 25.472744
429.99084 -454.02142 24.88019
433.72711 -454.17328 24.409983
436.18073 -455.84555 24.035109
446.35443 -454.14612 24.444855
450.00745 -453.97583 25.364151
453.78299 -454.14005 27.042482
456.47565 -455.50085 27.824142
423.26926 -451.28198 27.660076
426.12949 -450.11057 26.880737
429.97583 -449.98688 25.174194
433.0271 -450.08853 24.29451
446.61829 -449.9855 24.457308
450.03326 -449.97748 25.840719
452.79819 -450.36783 27.404602
427.05966 -446.26154 27.314127
429.97794 -445.96729 25.641672
433.13165 -445.81262 24.366322
443.6424 -444.59711 24.087315
446.16357 -445.89655 24.747107
449.87671 -446.09634 26.614285
452.22672 -447.56357 27.821642
427.70981 -443.22107 27.729664
430.02075 -442.05118 26.4856
433.88315 -441.90582 24.776386
437.81747 -440.95013 24.272112
442.28177 -441.62201 24.500299
446.05383 -441.96133 25.713673
448.99295 -442.39719 27.270519
430.76224 -438.27591 27.194996
433.98203 -437.98257 25.921024
437.97189 -438.02295 25.137714
442.02805 -437.94534 25.675037
445.8045 -438.26328 26.973745
448.20532 -439.63 27.831699
431.60019 -435.44839 27.798532
434.25577 -434.29669 27.230907
437.97311 -434.01193 26.708958
441.75742 -434.30615 27.134884
444.65036 -435.34167 27.70414
435.60629 -431.82587 27.923565
437.82983 -431.59515 27.820944
440.31216 -431.88068 27.934282
435.57471 -476.51498 31.703295
438.18179 -477.61655 31.069828
441.78253 -477.49036 31.117588
444.70111 -476.56931 31.657566
454.67468 -476.84464 29.226149
457.98703 -477.48749 29.998894
462.01401 -477.33936 29.93177
464.17059 -476.3284 28.78615
422.89429 -472.00354 28.90593
431.95132 -472.00372 31.959438
434.46262 -473.66293 30.997322
437.96109 -474.03696 29.491438
441.98343 -474.0538 29.544828
445.83563 -473.77936 30.922905
450.5224 -473.35269 30.01368
453.35849 -475.22034 30.58952
456.17828 -475.91626 31.835667
463.69501 -475.54184 31.420467
464.79535 -473.93411 29.902365
415.61337 -468.51297 29.568678
417.91144 -470.19656 30.02611
421.96976 -471.5278 30.014662
426.04398 -470.40665 29.996803
429.86102 -468.96942 30.638294
433.98331 -470.00342 29.913786
437.52383 -470.75116 28.434343
442.41855 -470.88449 28.4575
446.0658 -470.00906 29.327665
448.92386 -470.98236 29.804819
465.51718 -470.00836 30.017023
414.68228 -466.05978 30.014708
430.56375 -466.96234 29.496271
433.47934 -466.46997 28.744514
446.36636 -467.57944 28.229887
463.96826 -464.03455 28.119349
465.09079 -465.94064 29.999439
414.17117 -461.94885 30.013079
463.24622 -461.46829 28.989683
464.72125 -462.26709 30.750441
414.75772 -458.05316 30.079954
416.25568 -456.35736 28.440336
459.1709 -456.81003 28.581406
461.96875 -458.10983 30.101397
464.30673 -459.48563 31.604435
415.25781 -454.9856 31.001461
417.62228 -453.63715 29.619171
420.52066 -452.34833 28.356354
455.45358 -452.88089 28.286926
458.19946 -453.90689 29.581387
460.76755 -454.82419 31.207859
418.9964 -450.6637 30.990158
421.69437 -449.80048 29.309814
424.48657 -448.58069 28.220068
454.68381 -449.76358 28.929489
457.49545 -450.22162 30.698473
422.41956 -446.25943 30.695576
425.18854 -445.67911 28.958403
451.61533 -444.88528 28.399763
453.90372 -446.00342 30.029119
456.56305 -447.2598 31.497995
423.57944 -443.49286 31.589594
426.04843 -441.99524 29.96837
428.25259 -440.60367 28.232296
450.81339 -441.66266 29.328611
452.82803 -442.62271 31.032175
427.01907 -438.27988 30.669989
428.866 -437.64105 28.834797
447.35742 -436.94901 28.468378
449.71234 -438.14935 30.179396
427.57843 -434.668 31.452002
429.83447 -433.94092 29.603449
432.89307 -432.7814 28.356155
443.04462 -432.73099 28.394482
446.26331 -433.81262 29.593561
448.69806 -434.9046 31.100876
430.33249 -430.27527 30.867105
433.94424 -429.97241 29.323122
438.07462 -429.61917 28.94496
442.05154 -429.95886 29.816765
445.26193 -430.80197 30.976223
431.36163 -427.38782 31.637032
434.1662 -426.62906 31.139019
437.87115 -426.66345 30.950737
441.24316 -427.33221 31.443785
439.26517 -484.05017 35.938595
440.2991 -484.04419 35.936512
435.1225 -480.87314 35.247158
438.10767 -481.83255 34.268364
441.89145 -481.83527 34.308304
445.38428 -480.97766 35.183315
431.41913 -476.81375 35.361794
433.96252 -478.01419 33.976444
437.21161 -479.27023 32.521301
442.54739 -479.29745 32.511833
446.20578 -478.22574 33.516376
449.2272 -477.38245 34.966816
458.72672 -476.1814 32.278404
461.25992 -476.21924 32.284542
427.83087 -472.19812 35.803711
430.2709 -473.77496 34.346691
432.91904 -474.80621 32.645878
447.39682 -475.22693 32.370728
450.37924 -473.95569 33.519104
453.74493 -473.77576 34.228142
457.91458 -474.99136 34.156807
462.28922 -474.35803 34.098568
464.31323 -472.85016 32.837177
415.97958 -468.07874 32.014805
418.3172 -469.0831 33.73576
422.03076 -469.92197 33.991295
426.29141 -469.32016 34.257515
429.35001 -470.31876 33.169701
450.20428 -471.92349 32.159725
463.87659 -471.83447 35.603615
465.00964 -470.00418 33.988216
415.276 -465.46619 33.769512
416.68024 -467.1861 34.661304
426.11911 -467.96152 35.451191
428.86124 -467.98123 32.179569
466.21274 -465.96707 34.009312
413.86407 -461.97897 34.030418
466.45401 -461.97055 33.942127
412.96289 -457.99255 33.949551
463.43683 -456.77634 32.759735
465.20004 -458.22403 34.238941
414.33282 -454.02032 34.025265
416.32874 -452.32568 32.50333
459.94327 -452.13611 32.079288
462.271 -453.92331 33.862106
464.23053 -455.64056 35.50692
415.71631 -451.65829 35.038853
417.57089 -449.89899 33.801636
459.27017 -449.40015 32.971458
460.84195 -450.44519 34.603184
419.18735 -446.56897 34.480366
420.8049 -445.17249 33.245266
455.54517 -444.62195 32.557232
457.91312 -446.09802 34.039791
460.15143 -447.73398 35.737274
422.52414 -442.32037 34.188141
424.48288 -440.8248 32.765907
454.34039 -441.87418 33.803608
456.45621 -443.46048 35.149017
423.78796 -439.65598 35.456367
425.19238 -437.92438 33.909306
451.35651 -437.21643 33.499199
452.72443 -438.81876 34.527668
426.21167 -434.02789 33.910328
447.80905 -432.2204 32.272648
449.80658 -434.0072 34.022388
426.81006 -430.1507 34.300755
428.67221 -429.23581 32.542522
443.75183 -428.18588 32.204124
446.49442 -429.60281 33.728119
448.48508 -431.33786 34.811016
427.29147 -426.34549 35.222443
429.772 -425.85571 33.428516
433.65021 -424.71152 32.468601
438.3338 -424.73776 32.648232
442.17813 -425.72183 33.794785
444.83838 -427.1673 34.828999
427.82025 -423.69623 35.854099
430.30258 -422.45764 35.008732
433.97845 -421.99637 34.351604
437.81848 -422.59863 34.524555
440.74362 -423.45993 35.310577
433.41989 -419.95596 35.952297
435.08578 -484.69092 39.162384
438.12146 -485.46127 38.142487
441.97086 -485.58786 38.145592
445.45926 -484.93887 38.984039
448.0542 -484.0957 39.955654
431.2218 -480.94781 39.106365
433.79779 -482.22607 37.739582
436.80573 -483.52979 36.529396
442.97101 -483.65143 36.352978
446.42355 -482.58383 37.322525
449.34229 -481.40384 38.640835
427.66165 -476.51361 39.564655
429.96072 -477.97437 37.986828
432.45612 -479.46027 36.474682
447.91605 -479.98651 36.045769
450.65033 -478.56735 37.331993
453.07089 -477.2963 38.789986
426.63956 -473.6427 38.397881
428.74539 -474.95752 36.877586
451.86917 -475.82422 36.186211
454.46384 -473.93304 37.586327
457.82715 -473.06122 38.013309
461.45398 -472.87476 37.423744
419.39288 -468.26486 36.58149
422.51694 -468.80621 37.924347
425.19568 -470.11636 37.441353
455.5174 -471.91269 38.037033
457.6188 -471.81097 39.530399
462.84579 -471.28699 38.658134
465.0336 -469.42841 37.914001
415.22977 -464.78372 37.828548
417.78897 -466.71933 38.115551
421.98248 -467.58984 38.808434
424.66519 -467.83713 37.059471
466.66562 -466.04785 38.039268
413.42166 -462.04333 37.973171
467.09076 -461.94666 37.975025
412.6105 -457.99887 37.96907
465.89932 -457.94156 37.973953
413.98581 -454.02441 38.028229
463.29764 -453.30588 37.956738
464.41772 -455.2709 38.042385
415.63531 -451.48837 37.832706
416.8132 -449.49783 38.005444
461.74222 -449.99023 37.988628
418.61319 -446.02689 37.979416
420.06009 -444.07849 36.31221
458.96555 -445.35751 37.876976
460.43414 -447.30963 38.176109
419.94183 -443.92621 38.585693
421.53427 -441.95395 37.945114
455.25415 -440.93954 37.814217
456.94327 -442.88873 38.122452
423.4841 -438.50735 38.363831
424.29434 -436.97522 37.104469
451.90158 -436.19501 36.458633
453.29675 -438.04666 38.03595
423.9556 -435.42554 39.75795
424.55673 -433.96652 37.885036
450.86282 -433.9263 37.941051
452.10995 -435.8204 38.998726
423.9826 -428.49829 39.933681
424.8063 -430.00693 37.949444
447.439 -428.71677 37.730083
448.89114 -430.66019 38.168407
423.97708 -427.36273 39.94318
425.32697 -425.92444 37.871788
443.40866 -424.4837 37.213306
445.49615 -426.24991 38.115452
426.20609 -422.0954 38.189133
429.17419 -420.86584 36.535805
435.06232 -420.1236 36.141258
438.61627 -420.77512 37.286903
441.68637 -422.52246 38.221333
426.96204 -418.73984 39.181545
430.07312 -417.96677 38.251007
433.97144 -418.17303 37.989655
437.45599 -419.11618 38.697708
431.15714 -415.90222 39.898422
432.14349 -415.97345 39.97324
435.64566 -488.11371 43.752769
438.271 -488.55643 42.926006
441.905 -488.69086 42.670506
445.02069 -488.42545 43.327538
431.22574 -484.71274 43.056858
433.94669 -486.04254 42.025589
437.63181 -487.36554 41.109413
442.18469 -487.49741 40.728443
446.27786 -486.70026 41.6562
449.32492 -485.2037 42.494041
427.52917 -480.65442 43.285748
429.81537 -482.151 41.870811
432.41193 -483.58374 40.390488
450.85138 -482.61719 41.376152
452.96948 -481.2644 42.668266
423.93732 -476.05951 43.965931
426.4209 -477.77713 42.233852
428.54883 -479.15414 40.646172
451.97174 -479.89124 40.032215
454.53705 -478.37628 41.641846
456.69907 -476.91684 42.971745
423.01312 -473.39136 42.744236
424.99072 -474.56592 41.261681
455.70056 -475.6091 40.387951
457.76178 -473.94824 42.073566
419.87338 -468.40067 43.793854
421.72601 -470.05807 41.939407
424.03577 -471.82687 40.115349
459.01685 -471.23959 41.787807
461.94437 -469.75888 41.889534
464.58401 -468.61914 40.744076
415.6665 -464.33844 40.639954
418.15518 -465.57544 42.054359
420.80423 -467.18729 41.351032
463.48981 -467.24075 43.343399
465.25064 -465.90027 41.876015
414.69061 -461.8924 41.890003
416.39801 -463.49176 43.254501
465.68286 -462.01779 42.018047
414.29373 -457.9679 42.023067
416.05994 -456.16461 43.933289
463.5882 -457.05554 43.340828
465.00644 -458.20374 41.680523
415.08127 -454.37384 41.415356
416.54532 -453.35776 43.07222
462.88818 -453.89279 42.180565
464.28015 -455.54416 40.663425
415.89935 -451.82446 40.333721
417.34399 -449.99884 42.029644
459.98029 -448.08743 43.9305
461.45471 -449.9996 41.997066
418.9263 -446.27103 41.823196
420.46494 -444.61768 42.991348
458.79645 -445.5661 42.249294
460.34665 -447.34366 41.430485
419.98941 -443.97256 40.190655
421.80264 -442.0452 42.005989
455.21503 -441.07184 42.266136
456.83389 -442.96948 41.761017
423.44717 -438.01736 41.996254
451.8208 -436.29816 43.425781
453.30307 -438.08749 41.955063
423.83887 -434.00372 42.041382
424.01627 -433.24469 40.521805
450.74442 -433.90387 42.082439
452.12213 -435.79556 40.848915
423.61972 -429.9743 41.956112
424.00494 -431.05109 40.014011
447.50574 -428.75217 42.313244
448.83969 -430.65787 41.847336
423.37631 -426.04456 41.997082
424.07349 -424.60788 40.156925
443.85797 -424.19043 43.452545
445.57611 -426.01889 42.009113
423.3432 -422.07617 42.504406
424.36469 -421.61917 40.550919
439.94058 -420.07544 40.220745
442.07199 -421.97705 41.976082
444.01474 -423.98874 41.591019
423.55957 -418.40384 43.173042
425.36374 -417.6163 41.295422
428.42325 -416.16431 40.191517
435.00134 -416.42459 40.72121
438.08844 -418.01215 42.011318
440.1344 -419.84402 42.408508
423.91373 -415.79242 43.882504
426.34207 -414.56125 42.696754
429.97723 -414.12006 41.989468
433.79071 -414.90512 42.316067
436.19528 -415.8371 43.467346
434.62946 -488.65631 46.382423
437.96381 -489.62051 45.955444
442.03693 -490.02786 45.974014
445.96216 -489.29114 46.032711
448.64755 -488.4285 47.024433
427.85547 -484.17828 47.741959
430.24271 -485.64807 46.139153
432.96481 -487.41614 45.401264
447.66422 -487.74762 44.363987
450.34616 -486.47583 45.796162
452.65186 -484.74731 46.759975
426.58771 -481.72321 46.179836
428.56262 -483.35446 44.96627
451.91806 -483.88638 44.140011
454.28433 -482.17087 45.847878
456.40982 -480.54254 47.253948
423.10474 -477.2388 46.533226
424.88538 -478.77774 45.445648
455.67557 -479.58411 44.563625
457.70557 -477.95511 46.047493
419.7952 -472.47443 47.357483
421.48389 -474.17087 45.831074
459.38403 -474.51263 45.482388
460.33353 -473.14154 46.869946
419.22711 -469.75177 46.220249
420.36328 -471.15387 44.741276
459.86993 -471.45471 44.319073
460.89761 -469.85452 45.998062
418.43323 -465.98276 45.872017
462.34967 -466.03888 45.987263
464.19507 -464.61465 44.26664
415.7106 -460.89767 44.239067
417.30667 -462.04623 46.07666
462.56238 -461.90274 46.271069
464.25037 -462.32718 44.347912
415.71692 -458.72421 44.355228
417.41772 -457.92572 46.149815
462.02365 -458.03708 45.955612
464.07587 -459.86295 44.030678
418.13803 -453.99045 45.970375
459.76801 -452.82736 47.595886
461.13123 -454.14178 45.798695
418.96786 -450.25809 45.654255
420.61307 -449.08228 47.219372
458.91293 -449.57446 46.61499
460.5708 -450.65244 44.980465
419.5845 -447.31631 44.615421
421.79294 -445.91254 46.165012
424.17377 -444.28177 47.835567
455.23285 -445.05695 47.129219
457.45499 -446.3652 45.623848
423.15292 -442.35629 45.304741
424.65024 -441.64569 47.086662
451.61572 -440.58673 47.564869
453.96268 -442.02777 45.984467
456.26852 -443.67139 44.42421
423.82141 -438.7594 44.408382
425.02036 -437.88815 46.352905
447.82764 -436.22467 47.900368
450.5137 -437.65433 46.460178
452.63174 -438.99167 45.008091
423.90689 -432.72095 44.349998
424.88846 -434.08505 46.204414
446.99988 -433.46301 47.193336
449.27805 -434.29123 45.458187
423.64185 -429.67184 45.164162
424.53754 -430.36819 46.986423
443.63635 -428.64691 47.713005
446.03677 -429.9346 46.135956
448.3385 -431.44391 44.549557
423.23688 -425.91962 45.965172
424.16098 -427.45706 47.673698
442.83521 -425.58267 46.661518
444.9071 -426.77881 45.120434
422.71692 -422.01672 46.044567
439.55243 -420.82117 47.20385
441.28931 -422.30383 45.792206
422.6713 -417.97668 45.948288
438.09027 -418.02216 45.982407
440.0737 -419.91217 44.372326
423.22894 -414.33786 46.464638
425.19952 -412.98447 44.951565
430.62839 -412.28009 44.454693
434.23157 -413.70193 45.965969
436.29391 -415.69427 45.74189
423.82788 -411.76205 47.678478
426.24261 -410.93802 46.580639
429.92084 -410.9686 46.31105
432.39053 -411.72189 47.175377
406.64642 -505.11349 51.601315
409.84943 -505.29721 51.497517
412.0878 -504.69281 51.942253
403.54886 -500.89099 51.480564
406.17831 -501.65741 50.945385
409.86545 -502.00394 50.892307
412.34912 -500.70197 51.377209
403.19653 -498.03763 50.862656
405.93005 -498.00009 49.271427
410.03641 -497.79297 50.194302
412.44464 -498.72391 51.35305
403.48526 -494.82501 51.326061
405.95767 -494.03275 50.551483
408.76004 -494.7215 51.42205
406.7388 -491.28183 51.580353
408.40036 -491.14355 51.807346
431.8656 -488.07974 51.009876
433.97061 -489.09225 50.018318
438.01834 -490.42773 50.015038
442.01883 -490.87033 50.023113
446.03906 -490.34415 49.989079
449.46521 -488.9006 50.196873
427.4064 -484.54132 50.341099
429.8992 -486.53513 49.921719
432.15958 -487.94037 48.457474
451.30646 -487.40683 49.571053
453.47159 -485.5354 50.170364
423.61792 -480.47986 50.850697
425.48654 -482.31708 49.830307
455.29718 -483.17194 49.59399
456.99771 -481.33041 50.259453
422.08234 -478.01166 50.024967
424.11038 -479.86014 48.245781
458.9389 -478.12195 49.919113
460.09451 -476.26077 51.358025
419.39572 -473.40305 50.287346
420.45407 -475.14343 49.426075
459.87067 -475.68872 48.660912
460.56638 -473.89438 50.079266
418.55414 -470.03973 49.987064
461.0321 -470.01486 50.014542
418.36725 -465.97464 49.982468
460.88397 -465.98474 49.979759
418.84399 -461.96735 50.015457
459.78217 -461.42203 51.246178
460.57669 -462.19135 49.460453
419.35864 -458.11215 49.829437
420.15643 -456.69757 51.557842
459.43231 -457.82632 50.569042
460.30331 -458.38736 48.690144
419.59677 -454.47208 48.885197
420.75629 -453.66504 50.712509
458.59897 -453.90491 50.025368
460.08435 -455.52109 48.181133
419.89682 -451.76059 48.133373
422.15445 -450.04669 49.934555
424.25409 -448.4187 51.538082
455.26721 -449.13284 50.898861
457.12955 -450.41293 49.526318
423.3194 -447.03171 48.804588
425.12067 -445.7121 50.305962
451.77524 -444.30414 51.297497
453.80426 -446.0892 49.918724
456.23273 -447.7027 48.257282
426.55783 -442.07117 49.937042
428.21588 -440.42374 51.368618
447.909 -440.08386 51.24131
450.33392 -441.66953 50.30061
452.59457 -443.2818 48.721222
427.1351 -438.25748 49.028923
429.14532 -437.74854 51.035156
443.4216 -436.51331 51.45343
446.28262 -437.69321 50.562408
448.84171 -438.97202 49.413185
427.05984 -433.83923 48.866379
429.5112 -434.07629 50.867531
439.45193 -432.70959 51.777592
442.24908 -433.91953 50.693935
445.20355 -434.37332 48.898674
426.49146 -429.8804 49.391972
429.37903 -429.98285 51.358509
435.28952 -428.52814 51.815617
438.26816 -429.67542 51.190437
441.86621 -430.11423 49.435631
444.36264 -431.29929 48.247463
423.77805 -424.7562 48.336666
425.89066 -425.9794 49.801399
429.9921 -426.01184 51.451618
434.09955 -425.93671 51.322842
438.01871 -426.02924 50.041111
441.01431 -426.40244 48.634209
423.33966 -421.74323 49.076786
425.86209 -422.0769 50.996262
430.0639 -422.1611 51.697029
434.03503 -421.99304 51.135048
437.87344 -422.0737 49.383457
440.19629 -423.5256 48.180489
422.9061 -417.89648 49.940048
424.82422 -419.24591 51.63179
431.78336 -419.76047 51.96693
434.44031 -418.02881 50.967545
436.86414 -418.4375 48.981449
422.66412 -413.98068 50.0144
434.09363 -414.00485 49.953602
436.03638 -415.95758 48.053909
423.3588 -410.9538 50.327404
425.87918 -409.15244 49.973324
430.15158 -409.49869 50.04792
432.5127 -411.37448 50.016605
407.26883 -508.35031 54.921795
409.66956 -508.45593 55.03994
412.09323 -508.16974 55.959595
402.81522 -505.20877 54.450676
406.24847 -506.54413 54.275841
409.9245 -506.61276 54.760555
412.8222 -505.81201 54.204784
401.91953 -502.07333 53.810173
407.2692 -501.56879 54.232998
409.98248 -501.80869 53.648975
412.46646 -502.57651 53.37257
401.6832 -498.06067 53.962982
407.62488 -498.8634 54.544773
409.43015 -497.78732 53.571739
412.57523 -497.95203 53.12352
402.66495 -493.96829 54.006718
404.23743 -492.24307 52.395473
409.79224 -494.17374 53.943409
412.05264 -495.92038 53.18277
403.81406 -491.79431 54.956306
405.92282 -489.97864 53.964447
410.19424 -489.99069 53.207687
412.84824 -489.48154 55.060089
431.8049 -488.11572 53.814297
433.97165 -489.23157 54.034065
437.97363 -490.62979 54.016815
441.98315 -491.15228 53.991711
446.01349 -490.74289 54.025002
449.97458 -489.16946 54.048344
452.11203 -488.06741 55.416313
407.70584 -487.74069 55.310802
410.15521 -486.5213 54.623802
413.48453 -486.02081 55.087822
426.99133 -484.8652 54.096237
429.82169 -486.86542 54.022793
451.80026 -487.87866 52.706299
454.02853 -486.11539 54.021759
456.13376 -484.15793 55.302578
411.85223 -483.88785 55.933197
413.43845 -483.56665 55.780361
423.05145 -480.98434 54.281281
425.01944 -482.93393 53.84824
455.8244 -483.7793 52.555233
457.54474 -481.97104 54.014034
419.30777 -476.99899 54.919464
421.12671 -478.49957 53.705612
459.4248 -478.85956 53.6996
460.35165 -476.96588 54.3857
418.59116 -474.02313 54.048637
420.04074 -475.94357 52.166759
460.82303 -473.99313 54.013912
418.23547 -469.99036 54.017998
460.70331 -469.99512 54.009274
418.74252 -465.98694 53.981316
459.82144 -465.04355 54.471333
460.21497 -466.72128 53.654648
419.48181 -462.07776 53.907047
420.10571 -460.27527 55.435829
459.27884 -461.96561 54.015606
419.87427 -459.37753 52.738293
420.80908 -457.76465 54.2682
458.10489 -457.98767 53.984516
422.42261 -454.103 53.960587
424.15646 -452.38333 55.610802
455.37991 -453.28836 54.850311
456.84052 -454.52112 53.439484
423.55347 -450.36615 53.86557
424.51291 -449.69653 54.151737
454.5957 -449.93872 54.033398
456.12192 -451.82541 52.195156
423.74051 -446.26385 55.163456
424.99265 -445.85614 53.3577
451.85178 -444.31192 52.219173
453.98462 -446.0264 53.885632
425.87872 -441.96994 54.001984
428.33514 -440.2605 55.93544
447.7085 -440.2662 55.87627
450.79358 -441.21548 54.05864
452.87259 -442.87564 54.199059
427.32675 -438.3306 53.753937
429.02536 -437.45453 54.570744
443.3284 -436.51471 55.605301
446.40051 -437.40594 54.547485
449.1351 -438.96005 53.732971
427.9837 -435.96246 53.925625
430.24197 -434.34149 53.809139
433.69485 -432.85666 53.736801
438.07672 -433.05783 53.768692
442.01022 -434.3298 53.953285
444.862 -435.36942 53.742065
431.3786 -430.26862 52.191059
434.00507 -430.32825 52.829308
436.86176 -431.17068 52.345547
431.81119 -427.78201 52.036697
432.73996 -427.68396 52.079021
427.48682 -420.17633 52.048763
429.07101 -420.25903 52.043903
423.74667 -416.49356 52.308697
426.1958 -417.62418 52.902836
429.92963 -417.92099 52.842712
432.62033 -417.08456 52.35117
423.27124 -413.58115 53.511341
425.63434 -414.74927 54.919621
430.38318 -414.39584 54.83017
432.63095 -413.89566 53.006577
423.37238 -410.5798 53.963928
425.36533 -408.49472 53.853657
430.39581 -409.40759 54.108932
432.2338 -411.3829 53.019955
426.98483 -407.87033 54.432476
428.25162 -407.94003 54.320129
406.52054 -508.96674 57.864788
409.97147 -510.49304 57.945812
413.39529 -509.77756 58.115105
402.3143 -505.90744 58.056427
406.12253 -506.25537 58.617241
410.17114 -505.6911 57.528732
413.53458 -506.41541 58.291386
416.52899 -504.58344 59.58287
401.06497 -502.02838 58.025208
406.54895 -502.07462 58.050858
414.2482 -501.91385 59.210499
416.70535 -502.22849 59.356598
401.21542 -497.9837 58.015434
407.08023 -498.50775 57.937542
408.66794 -496.66962 58.447975
413.95294 -499.71918 59.821098
416.05795 -499.96573 59.956055
402.49997 -493.9519 58.025043
404.03189 -492.06134 59.893494
410.60266 -494.59592 57.73584
412.67484 -492.7738 58.55418
403.8049 -491.73981 57.517296
405.49579 -489.81332 58.029663
414.289 -490.08142 57.881874
416.18057 -488.32645 59.616562
431.91742 -488.06216 56.536434
434.07495 -488.96304 57.991554
438.00861 -490.37091 58.001808
441.99661 -490.98862 58.048512
445.96643 -490.68628 58.031548
450.03671 -489.2771 58.000854
452.24957 -488.1416 58.190067
407.51453 -487.41525 58.164257
409.11313 -485.40494 57.767372
415.4288 -486.31833 56.822281
416.9101 -485.71466 58.684288
426.66455 -484.94073 58.023903
429.94125 -486.88184 58.008717
432.19244 -487.91983 59.22934
454.31259 -486.49701 57.977169
456.41241 -484.4534 58.221001
410.75247 -482.26825 58.273384
414.06522 -481.77112 56.651154
417.95352 -481.96625 58.046513
422.12051 -481.61481 58.047318
424.70496 -483.3956 57.848873
458.379 -482.13635 57.934334
460.33029 -480.41995 59.266514
411.53882 -479.04355 59.311256
413.91827 -477.97113 57.998722
417.70187 -478.19958 56.774967
420.52582 -479.63477 56.451546
459.79214 -479.62317 56.613979
461.13644 -477.94693 58.153763
414.88138 -474.32327 58.980587
416.87067 -473.89917 57.109608
461.58261 -474.04181 58.015549
415.72522 -471.48895 59.664612
417.29181 -469.94562 57.938595
460.97168 -469.99411 57.968716
418.45987 -466.04764 57.975925
459.7373 -465.00961 57.828102
460.25482 -466.95117 58.201019
419.4751 -462.76917 57.863937
420.62003 -460.82458 58.392765
458.47842 -461.93927 58.039352
422.29834 -458.164 57.914616
424.23502 -456.59698 59.44384
455.18106 -457.32446 58.669052
456.8111 -458.70255 57.524071
423.35114 -453.92752 58.102779
424.16226 -454.21512 57.763725
455.02942 -454.03824 57.921375
456.03934 -452.38181 59.397446
422.99368 -449.95563 58.020641
425.31259 -448.88354 59.147491
451.72842 -448.35864 59.715572
455.16849 -449.59332 58.04649
456.09131 -451.08145 59.10902
423.54642 -446.85168 57.192608
426.1929 -445.83197 58.257248
428.06393 -444.16287 58.228817
451.07947 -445.6189 58.557362
453.95547 -446.30792 57.61451
426.78195 -442.98163 56.747955
428.7897 -441.68372 57.878765
447.52328 -440.52411 57.258301
449.55396 -442.34235 57.799419
452.6929 -443.58414 56.354645
430.66714 -438.32468 57.744965
433.62961 -436.52966 58.086597
438.24506 -436.21561 57.94981
442.06342 -436.86487 57.939705
445.72888 -438.73956 58.131153
448.09152 -439.93781 59.817429
431.17331 -434.77722 56.210537
434.18658 -434.20465 56.973488
437.79486 -434.64587 57.377968
440.85468 -435.09244 56.387665
426.28174 -413.02588 56.933369
429.21622 -412.96469 56.854427
423.9447 -410.97485 56.065086
426.13065 -409.94986 57.597103
429.36465 -410.10721 57.329765
427.23535 -407.95535 56.269981
407.95929 -508.02591 60.00581
410.5271 -509.30099 60.717319
413.0184 -509.43417 60.724781
402.96341 -505.06741 60.618263
405.76706 -505.69446 60.287529
409.92413 -506.96423 60.562733
414.37656 -505.36612 61.232559
416.94202 -504.81677 61.387325
402.59802 -501.90326 61.498798
405.88339 -501.40863 61.640232
410.23624 -500.78516 62.093456
413.65213 -502.61392 62.441841
417.14725 -501.9946 61.923386
402.65131 -497.99734 61.910431
405.19382 -498.79959 63.31234
410.23355 -498.23975 60.433388
414.23801 -498.01144 61.714005
416.30661 -499.64743 61.453854
403.22754 -494.61584 61.191212
405.1163 -493.51144 62.768665
411.44421 -495.20374 60.549847
412.97125 -493.84903 62.205303
406.48593 -490.24615 61.852955
408.44229 -489.24658 63.648891
414.93146 -490.9422 62.054214
416.70694 -488.99225 62.114304
434.59845 -488.59244 61.770321
437.97787 -489.73877 61.981995
442.04211 -490.47339 62.011738
446.0278 -490.2644 62.01347
450.0657 -489.02167 62.005486
452.23868 -488.11539 61.752956
407.69446 -487.33316 61.13274
408.59042 -485.6749 62.23769
418.45926 -486.13013 61.90007
420.30286 -484.36603 63.268028
426.62656 -484.84595 61.966805
430.03305 -486.56659 62.026066
432.74872 -487.69696 62.351002
454.29233 -486.83005 62.071846
456.79672 -484.72183 62.149773
409.56943 -482.00024 61.960308
419.52994 -483.49103 60.651108
422.02335 -483.01862 61.929478
424.65814 -483.62384 62.047451
458.73312 -482.97372 61.784359
461.79742 -481.41397 62.421665
464.43744 -480.89319 63.679333
410.78601 -478.01953 61.996017
412.24246 -476.47977 60.252155
462.91702 -478.18414 61.339375
464.59656 -477.90692 63.324806
411.504 -474.7821 62.93977
413.05423 -473.55768 61.421848
463.08035 -473.83423 61.577793
464.39105 -474.53827 63.442795
414.53149 -470.23792 62.267834
416.45807 -468.81522 60.860561
462.14233 -470.00339 62.07671
415.71124 -467.71045 63.507774
417.85443 -465.93912 62.037003
459.52448 -464.6748 62.074829
460.64316 -466.67468 62.056221
419.58798 -463.43985 61.546581
421.77872 -461.66592 62.193054
424.44949 -460.44696 63.490639
455.1524 -460.72009 62.864868
457.60028 -462.34918 61.835464
423.37543 -457.83572 61.883804
424.50656 -458.16721 62.068947
454.58072 -458.01413 61.974762
456.16235 -459.84784 60.139
422.80673 -453.95801 61.985165
425.33582 -452.4126 63.512939
451.815 -452.22717 63.710747
455.33765 -453.7998 62.299873
456.0278 -452.56586 60.71117
423.12585 -450.82574 61.201374
425.92999 -449.99289 61.937008
451.79633 -449.77704 62.259838
453.89136 -450.51285 61.529911
456.05807 -451.63876 60.286186
426.90613 -445.99362 61.956959
451.48178 -445.92212 61.910408
452.03778 -447.76294 63.378731
427.67975 -443.11847 62.099201
428.46213 -441.12784 61.929478
449.77225 -441.90714 61.993347
430.44867 -438.28738 62.000816
432.79898 -436.44437 62.03788
442.61136 -436.5238 61.895432
446.05511 -438.27158 62.000385
448.16885 -439.84351 62.00227
434.77704 -435.61249 61.99139
437.99551 -435.46609 62.019089
440.6601 -435.79047 62.157047
407.93643 -500.01602 64.008102
410.56653 -500.4086 64.644409
413.79074 -501.06445 64.545555
470.89313 -502.26624 67.687805
473.2381 -501.70609 67.620186
406.28723 -497.9642 64.909615
409.92798 -498.15875 65.965225
413.30249 -498.11972 64.993446
471.96561 -498.48392 67.944221
472.91638 -498.61432 67.792915
406.80472 -494.49173 64.679855
410.02368 -494.01584 65.078804
412.5697 -494.74091 64.522255
407.83008 -491.87073 64.071854
410.25058 -490.13617 64.618172
413.81296 -489.65436 64.91571
416.66617 -488.60065 64.686943
435.36188 -488.22864 65.048645
438.05759 -488.87708 65.979225
442.01089 -489.63873 66.024536
446.01013 -489.53577 65.999115
449.7843 -488.61096 65.89753
452.04938 -488.02658 64.283501
466.6644 -488.93372 67.640717
468.16928 -488.98132 67.924179
410.48596 -485.89279 65.235161
413.92776 -486.0463 66.657265
418.12799 -486.16489 66.139771
420.6351 -484.48938 65.892715
426.88013 -484.61493 65.866074
430.01953 -486.04681 65.972046
433.69601 -487.36661 66.208687
436.23093 -487.93643 67.707863
451.60684 -487.86368 66.94426
454.08636 -486.85391 66.018974
457.36539 -484.73813 66.208382
462.53812 -484.78751 66.967422
466.03235 -485.93832 66.74382
468.12125 -485.57117 67.855377
410.29239 -482.01901 66.073997
412.67596 -483.46698 67.652977
422.59558 -483.50476 66.011429
424.93628 -483.64233 66.182426
459.17603 -483.65387 65.419006
461.85709 -483.34244 65.134468
466.38095 -482.03094 65.683235
468.14883 -482.05832 67.731277
410.4176 -477.98199 66.036102
466.60086 -478.0054 65.925728
468.05124 -479.64197 67.901367
411.24802 -474.0563 66.061882
412.1228 -472.22101 64.363197
465.89566 -473.97974 65.97126
411.91962 -471.80661 66.590172
413.17896 -469.81747 65.926834
463.2525 -469.13779 65.411926
464.81686 -470.67606 66.480743
415.19437 -467.30878 66.130661
418.01819 -465.62405 65.953735
421.4505 -464.59558 66.818962
424.37061 -464.13312 67.854424
455.68137 -464.13348 67.705223
458.49341 -464.87805 66.323906
461.38812 -466.78052 66.101509
422.4653 -463.13071 65.208786
425.67453 -461.69284 66.431992
451.83771 -461.61169 67.791115
453.90823 -461.88022 66.238953
456.92255 -463.38666 65.179161
423.43515 -457.43372 66.042313
424.75742 -459.27823 65.876404
454.68777 -458.16068 65.978607
423.34512 -454.79947 65.236618
426.20102 -453.87189 66.294937
428.03043 -455.10043 67.919716
451.21368 -453.50262 66.501724
454.00415 -454.39291 65.710197
426.46008 -450.04007 66.033951
451.70068 -450.46228 66.239059
452.07465 -448.72006 65.374847
426.74484 -446.00024 66.012207
451.41757 -445.82233 66.147758
452.05505 -447.65405 65.075882
427.67004 -443.22394 65.481186
429.00589 -441.41016 66.315727
447.56531 -440.36816 67.203133
449.55722 -442.04343 65.931305
430.89462 -438.84607 65.668976
433.8512 -437.25116 66.188911
437.96118 -436.78955 66.52433
442.04965 -437.05524 66.111679
445.89401 -438.66382 65.85836
448.11148 -439.91345 64.574196
435.25323 -435.86398 64.360428
438.06732 -435.82382 64.466187
440.4711 -435.91983 64.322212
467.8053 -504.28079 71.014275
470.02359 -505.00717 70.149979
473.79495 -504.60156 70.384247
476.08246 -504.13315 71.660065
467.52423 -502.44775 70.866821
469.66785 -501.3942 69.665642
474.96323 -502.30389 68.859489
476.57394 -501.91327 70.973663
470.93213 -497.93991 69.910629
474.68405 -497.66916 69.092209
476.59186 -498.32513 71.093491
467.39487 -492.67694 70.712944
469.88776 -494.05621 69.545326
473.58826 -494.27621 70.172615
476.02466 -495.94931 71.891098
438.83112 -488.30145 69.524048
441.93915 -488.74164 69.991882
445.96954 -488.64371 69.94381
448.9574 -488.26477 69.141373
463.82007 -488.2114 71.323967
465.67767 -490.10919 69.832275
470.14844 -490.04468 69.628273
472.37125 -491.45859 71.380028
415.297 -484.27499 68.260887
418.06207 -484.47229 68.64743
420.41858 -484.1608 68.427841
427.40738 -484.29584 69.25219
429.99277 -485.25128 69.99762
434.03467 -486.6911 69.972603
437.18253 -487.66183 70.429276
447.68533 -487.94501 71.789742
450.50677 -487.60553 70.38308
454.06723 -486.50409 70.001259
457.95477 -484.73895 69.946404
462.10233 -485.91666 69.966873
464.27869 -487.59848 68.637581
469.44919 -485.96872 69.93985
411.53583 -480.82419 68.471237
414.12402 -481.90866 69.743294
417.82999 -482.90182 70.657967
421.99478 -482.94583 70.12571
425.60764 -483.18326 70.253967
428.04288 -483.94977 71.89241
469.18369 -482.03949 69.959686
411.36792 -477.91367 68.920319
413.13934 -478.22089 70.938446
467.85327 -476.75696 68.31868
468.69403 -478.11963 70.118111
411.63348 -474.43579 68.788803
412.8765 -473.78418 70.679451
467.35605 -473.65665 69.786926
468.22403 -475.29935 70.864655
414.00458 -470.03247 69.978409
417.08112 -468.48395 71.57148
420.05118 -468.04785 71.983742
463.72336 -468.23792 70.233009
465.46658 -470.11819 70.005074
415.3963 -467.4946 68.880722
418.07025 -466.89127 69.799072
422.01221 -466.3143 70.020386
425.78119 -465.19904 70.281311
428.90839 -464.49426 71.358543
451.20087 -464.3985 71.384201
454.24857 -465.01761 70.260468
457.93896 -466.08347 70.016418
461.8251 -467.16531 69.969696
426.892 -461.51831 69.398018
429.53171 -462.37579 70.57872
432.07816 -462.51971 71.941818
447.80026 -462.23325 71.857246
450.4325 -462.14951 70.381508
452.78366 -461.70514 69.286888
423.82675 -457.70322 68.207062
425.68433 -457.84717 70.059006
429.12451 -456.75638 70.936272
450.29831 -456.64807 70.903305
453.61795 -457.99097 69.914833
427.17035 -453.96777 68.952667
