# .PCD v0.7 - Point Cloud Data file format
VERSION 0.7
FIELDS x y z
SIZE 4 4 4
TYPE F F F
COUNT 1 1 1
WIDTH 1598
HEIGHT 1
VIEWPOINT 0 0 0 1 0 0 0
POINTS 1598
DATA ascii
434.93494 -504.53513 7.4999971
423.2435 -484.78152 93.697296
462.32272 -495.75974 0
429.72205 -471.23566 0
428.19485 -450.22119 25.747879
431.4227 -413.63574 137.48114
416.92761 -491.63684 101.80498
444.92511 -458.63574 123.03294
466.18628 -492.09161 21.038748
415.49469 -460.1608 118.07214
414.76004 -413.63574 108.93047
450.05829 -437.76056 47.058559
443.47314 -519.10742 120.97234
449.9418 -447.22699 149.99994
437.5318 -486.30896 90.002151
411.54752 -507.31952 53.287186
449.55591 -486.35645 0.63746059
464.98853 -470.29495 33.144608
430.57822 -421.73801 5.5986652
433.19708 -425.90939 31.774418
445.4133 -500.75299 98.779831
446.49316 -426.97183 41.711536
422.34009 -435.56821 149.99994
453.58002 -435.55075 145.07101
474.09531 -500.02737 82.050903
425.88345 -436.72437 7.4999971
462.52106 -451.3205 7.4999971
426.55637 -460.82584 66.861481
410.98715 -499.88489 119.74994
461.51367 -496.85382 0.6374591
417.64313 -452.93759 30.259499
453.58002 -446.98877 132.00293
407.60013 -473.54266 7.4999971
446.73462 -460.79202 75.141556
423.2486 -471.87823 27.923883
434.57306 -502.81583 99.923187
426.83569 -466.31274 19.608368
409.14221 -469.83301 0.84164023
438.0639 -490.42249 58.042061
474.48047 -500.54584 87.291641
451.50989 -465.84076 73.865936
407.6434 -470.35486 1.3391881
463.63528 -497.08929 21.395798
424.44601 -487.84686 94.870132
422.98846 -454.98785 60.953423
406.15811 -478.90601 7.4999971
433.25433 -471.05188 0
412.74445 -489.44122 54.794144
471.15628 -456.22504 0
413.20297 -502.88324 62.445892
409.95068 -483.27261 58.778473
460.57669 -498.44693 0.63745892
423.39755 -458.63574 105.88014
427.15356 -447.44659 120.06761
449.51166 -465.51959 0
447.75616 -473.31329 31.65617
462.56226 -460.32822 12.601523
449.32379 -420.96671 5.0211973
460.5589 -488.28018 7.4999971
453.58002 -450.53049 126.01985
440.76395 -440.56293 0
443.07718 -458.63574 115.26381
445.93622 -490.5654 60.287022
422.89111 -484.18588 20.672903
453.58002 -454.62625 110.23042
459.08917 -462.49307 114.92872
449.20679 -489.82339 0.63745999
433.92264 -429.23175 149.99994
460.53296 -449.07147 43.836407
447.47729 -480.79782 90.429306
427.77136 -437.2821 54.720741
454.25217 -476.05215 21.35556
454.85916 -477.93732 82.017578
437.40692 -440.03998 120.11125
478.00467 -452.79684 0
411.11145 -452.42923 104.99996
450.68518 -461.69403 96.64016
453.58002 -426.70993 144.65651
435.71594 -458.68915 7.4999971
422.03918 -413.63574 145.62512
453.65277 -484.67719 100.0715
466.79745 -484.22635 81.659515
407.68582 -471.48029 110.49153
445.76544 -426.68536 0
427.36523 -493.10382 4.5356159
432.93634 -489.63638 92.821632
463.0813 -481.73322 117.67287
420.21198 -460.18689 0
436.99292 -458.63574 109.71183
440.06354 -428.00153 7.4999971
427.39911 -482.63177 1.2196193
421.03619 -486.2962 0.63746101
426.76663 -468.71594 14.250355
464.20258 -497.02182 7.4999971
449.17508 -464.65558 10.845665
416.05402 -480.24536 56.879055
407.03888 -461.95285 0
424.40466 -439.41873 34.35746
430.71063 -421.69214 5.3128762
412.19638 -492.03351 111.90598
453.58002 -416.32962 149.57263
430.61847 -470.57361 144.41841
407.20328 -499.11765 55.511658
414.14444 -508.13995 59.609219
442.08002 -476.78192 129.20142
434.12518 -458.48303 149.99994
473.97144 -476.36374 0
465.23083 -500.66763 0.63745832
470.45837 -501.81781 67.618744
413.71716 -456.6796 0.98795116
411.61359 -456.52417 5.3373823
435.29523 -475.85641 138.27284
471.5249 -437.3457 2.3536925
408.58002 -449.69385 128.67059
465.76801 -478.642 81.221893
450.7771 -477.56744 13.067822
454.78485 -488.01862 0.63746083
452.40137 -477.83472 38.492432
429.57721 -503.24225 100.15026
429.6723 -517.62915 134.61552
412.3331 -468.76642 134.79443
441.31805 -436.78476 0
463.1651 -464.53024 45.456398
433.44534 -427.24045 7.4999971
451.4115 -460.33508 72.789047
442.76581 -424.87479 149.99994
445.14487 -494.51984 140.6899
447.96558 -488.20477 0
459.05249 -469.81833 100.31461
430.8479 -466.81195 5.0073419
423.12772 -456.06732 0
441.83603 -514.6333 136.66963
425.45624 -469.64355 23.901649
428.89642 -461.96555 18.033953
439.31433 -449.07538 96.616768
445.81067 -506.88766 3.3212128
405.10577 -478.35431 1.3533367
418.38235 -466.24152 58.2295
414.72842 -484.12906 95.692085
424.77667 -470.75262 142.83649
412.73401 -443.56897 149.99994
439.98114 -493.90549 93.31366
427.89365 -481.08563 15.581244
448.65601 -421.08942 7.4999976
412.34253 -458.63574 125.66927
465.53891 -476.98706 17.025505
440.16721 -456.94617 77.001167
423.02164 -435.86426 149.99994
416.55243 -458.28128 45.166641
432.23517 -441.20898 0
442.17444 -488.84097 0
429.89438 -465.26291 90.724831
435.35742 -429.29471 104.99996
431.09418 -426.42148 7.4999971
432.91602 -413.63574 106.58217
440.9223 -519.69214 127.96767
430.90964 -458.53839 75.228668
430.19467 -486.52869 63.110641
465.2475 -472.39807 29.919554
417.81891 -449.38391 42.879753
467.25842 -481.18256 0.63746136
464.86774 -479.46072 0
464.36804 -505.73785 1.1596925
459.21793 -491.13892 0
411.25583 -446.1228 149.99994
411.93085 -487.24918 65.562981
430.96545 -474.31454 85.126129
445.39655 -413.63574 138.47736
451.55283 -413.63574 113.6692
473.55222 -493.03629 71.411957
449.44205 -473.35446 0.63746327
466.00525 -501.37219 0.63745821
433.95837 -414.52664 51.053963
413.59659 -507.72467 133.40787
467.6283 -475.38873 68.506866
448.83798 -413.63577 138.44466
461.32816 -482.59009 103.74031
405.64224 -472.63269 12.346195
432.56552 -481.30969 132.52229
422.46872 -453.48004 129.88522
464.58789 -488.08377 0
442.09796 -442.49768 7.4999971
470.79376 -482.58179 0
421.18323 -484.1113 65.082054
429.29114 -459.89813 140.18719
415.60034 -488.41238 21.485455
417.64368 -453.23904 0.63746685
465.3504 -468.72791 0
420.97473 -496.17166 142.60583
439.80206 -460.40604 0
431.3194 -439.5921 123.70421
408.58002 -434.74573 139.10548
438.11877 -486.05594 88.941116
442.22546 -456.48718 89.12912
422.61386 -469.5343 34.981716
408.58002 -433.70084 117.73235
451.00012 -439.75537 30.686234
431.64441 -449.90457 129.9502
433.20444 -443.5097 0
444.13818 -515.65039 133.5528
434.04395 -441.2373 71.108643
452.22211 -460.32498 125.62438
419.77734 -427.22693 4.2650619
415.42722 -457.96945 28.507191
430.02585 -477.14398 4.8259945
419.8241 -498.21805 11.494389
419.38885 -445.55896 0
452.7724 -471.89761 0.63746351
425.8114 -432.88217 47.885365
431.43802 -440.53333 121.39763
436.33792 -489.98053 49.171497
450.85202 -479.11139 0.63746244
413.88327 -473.80804 96.626038
414.21927 -469.47922 99.175018
434.42139 -458.63574 139.29552
405.14743 -486.27548 11.434016
443.31903 -428.18286 0
454.6626 -460.14978 62.684074
456.17096 -432.33224 0
441.40652 -495.39758 7.4999971
442.08646 -436.80814 26.079723
430.17633 -461.63086 0
416.06125 -501.68759 108.59196
423.19791 -421.7457 48.99028
477.57397 -450.99597 4.0405483
411.84857 -506.72952 123.42748
414.7446 -490.39047 130.44861
429.0759 -473.29236 81.145348
441.33734 -457.48874 23.795128
411.76685 -490.88232 121.56538
436.53583 -450.72162 86.633263
470.72873 -508.44739 79.873474
408.40231 -440.99567 5.0493593
454.30753 -486.05255 126.96869
453.58002 -443.70273 134.09203
408.58002 -431.92947 146.59103
470.63724 -447.80859 7.4999971
448.14899 -469.03915 7.4999971
452.2706 -476.37009 96.00322
452.50528 -473.85791 18.653778
466.35361 -493.07678 20.941153
471.60083 -480.13803 3.2434976
439.3096 -466.51691 7.4999971
413.28546 -493.06152 109.93593
417.86807 -498.44446 9.684968
442.31531 -413.63574 142.39018
467.06482 -439.25488 0
410.12115 -450.35938 149.99994
430.56815 -459.26605 1.3172821
434.43127 -420.12238 35.945248
478.19626 -473.93692 0.6907866
443.86722 -507.57382 103.13338
469.2594 -496.87003 84.755516
455.57812 -456.43945 64.620926
460.02213 -463.46295 112.57682
462.92798 -494.43347 0.6374594
404.58939 -485.38913 5.2012062
450.43048 -511.69519 128.13794
420.79303 -477.91882 128.16891
415.0564 -458.63574 122.77769
467.68924 -470.23706 1.7748231
446.65875 -481.05133 2.5476894
460.34293 -456.57236 48.039196
429.58865 -433.89325 55.122917
412.68835 -419.15799 149.99994
414.88525 -458.63574 123.81043
463.5921 -466.16241 7.4999971
456.52258 -504.63538 16.332478
426.95065 -449.85687 7.4999971
411.71185 -491.22046 7.4999971
414.76459 -458.63574 118.69409
446.53485 -453.62003 74.652412
437.60278 -466.98175 26.869423
431.91602 -464.58151 0
428.10883 -483.73645 14.751138
467.17178 -492.71793 71.334518
416.67786 -487.21167 59.384377
413.0029 -493.26855 7.1325564
414.41534 -459.99506 28.730602
453.58002 -450.50983 132.27246
453.03091 -460.30417 101.24158
456.30374 -423.63763 7.4999971
472.69116 -504.23486 72.87014
425.88354 -445.78998 52.692017
449.21561 -452.16089 115.668
456.51828 -491.28238 114.56736
433.40942 -444.87939 129.38557
409.86572 -457.59326 104.99996
438.89639 -451.9754 76.613869
435.32098 -438.25076 7.4999976
475.45618 -493.5592 74.606094
460.68677 -485.69281 115.00066
448.68787 -442.02942 68.099731
451.47327 -443.59598 52.188732
420.79419 -484.07593 129.75813
468.03915 -502.60678 82.145241
430.6412 -465.99988 1.8341091
465.66943 -473.55798 0.63746232
468.4953 -477.53229 77.314651
475.6055 -501.1853 69.261841
413.57117 -469.52817 140.57945
447.13696 -516.09613 125.78854
408.58002 -457.09045 112.72308
416.72797 -450.50607 40.836185
464.33643 -475.64883 26.144924
433.5708 -521.75201 122.94373
410.72281 -505.56473 56.497112
440.56708 -486.49432 88.013931
469.51691 -493.26514 83.026421
427.87427 -458.63574 135.83133
453.58002 -438.80701 128.5047
415.54892 -432.7547 149.99994
428.63147 -444.90503 121.83178
440.17581 -503.94501 144.1218
402.79706 -502.00653 61.941463
427.05731 -440.74738 52.253052
439.62564 -475.22885 135.0432
411.74014 -486.33804 118.16938
464.03003 -467.00006 19.859592
444.65662 -513.24078 136.27243
416.84454 -467.13861 98.902603
416.07544 -452.5462 41.746555
457.82968 -499.73322 7.4999976
410.77081 -495.36316 120.96577
408.58002 -428.67847 114.60454
466.47232 -506.05457 2.8264949
406.00983 -488.61414 10.635101
450.56903 -436.86346 0
446.53824 -420.47064 0.84741324
441.85428 -487.96027 75.139191
422.43951 -490.6864 0
428.30536 -473.25348 80.227402
447.41718 -458.28473 0
408.58002 -456.5704 109.38393
408.58002 -415.61264 127.98257
453.02597 -479.10071 97.206276
463.93536 -481.03775 0
455.70154 -469.43201 76.736832
434.09509 -483.69543 88.477928
446.36957 -422.63928 7.4999967
427.20035 -407.8363 55.691162
448.00159 -491.07858 97.008186
453.58002 -451.37646 134.6188
456.39273 -475.92386 127.11113
418.25269 -494.43787 0.98855829
450.39005 -494.65417 104.56935
435.8544 -456.78094 0
413.76312 -465.16486 17.620419
418.23416 -468.00089 7.4999971
447.50275 -437.39667 28.328518
473.3248 -498.92328 82.773827
449.79382 -483.64465 14.904696
415.13614 -491.38583 103.37927
421.64014 -442.70605 104.99997
430.71536 -446.14163 115.31536
431.52643 -409.98837 53.062477
449.89417 -467.49481 0
431.56363 -486.23083 44.938499
411.06891 -493.14807 2.287708
446.02835 -456.1839 24.534441
442.3551 -497.9679 0
425.09036 -496.35498 7.4831028
423.23291 -479.38336 0
408.58002 -434.4408 141.04759
430.24994 -502.04428 99.804932
415.41202 -480.59845 94.295456
419.45703 -454.91058 0
431.8136 -521.565 119.56165
452.36526 -503.71722 108.85138
444.33713 -448.37274 7.4999971
446.89096 -497.95721 8.9558086
449.66785 -493.41266 103.06421
443.02838 -462.36014 25.198845
430.47574 -445.52234 25.41572
423.19925 -413.63574 121.06818
454.7822 -481.09369 126.28902
456.49011 -498.19528 118.27707
417.23328 -413.63574 142.26062
408.58002 -440.97839 124.2838
464.22949 -462.02307 44.410686
427.61694 -466.77881 16.720469
448.73572 -444.20392 149.99994
406.44849 -488.77274 59.269875
441.18732 -519.37964 115.51543
434.22949 -416.34396 104.99996
419.75266 -427.24667 3.7360981
422.60626 -454.66653 61.638481
428.21735 -485.55853 13.866508
456.07739 -467.68637 98.728218
473.75635 -500.82031 85.262283
471.72357 -500.87573 10.705993
407.9613 -509.49734 59.123737
454.93741 -502.11606 7.4999971
418.57874 -516.94275 126.52086
431.04187 -487.65887 55.094658
414.29321 -473.3399 60.082474
424.21448 -440.42328 45.946293
412.51508 -492.34851 111.21188
410.87531 -469.23865 14.824962
422.01685 -447.40878 104.99997
452.29617 -413.63574 135.45047
448.38211 -413.63574 106.86641
435.59158 -480.26648 7.4999971
408.58002 -438.27994 145.95467
453.58002 -423.2088 138.13757
436.52203 -438.89874 24.963665
452.15771 -458.63574 124.42499
464.27069 -429.84399 7.4999976
423.66351 -468.62909 145.75328
449.22284 -468.776 23.868973
411.53223 -494.70105 116.50261
436.21301 -469.76709 146.27023
425.32269 -436.29425 7.4999971
452.95935 -475.94244 0
458.32187 -455.37408 10.335169
402.88666 -495.64813 51.739498
427.82812 -435.6572 0
473.22879 -469.57422 7.4999971
457.811 -462.13324 120.13635
431.15619 -514.15155 105.39036
443.99506 -448.32495 75.932152
449.56973 -417.76746 149.99994
418.49039 -433.63712 0
429.42163 -508.79987 142.72256
446.61996 -492.79541 12.150568
424.05023 -453.43073 56.323681
423.24133 -493.99918 16.711414
471.42871 -440.68216 0
451.04388 -456.06973 103.89154
413.09433 -478.81592 0
417.55798 -488.20459 63.737789
454.74231 -495.52594 110.15266
447.13239 -499.46442 102.8633
445.18054 -484.64197 92.052635
448.98029 -453.01947 121.93587
439.82367 -490.45081 48.046471
425.75232 -413.06949 44.255707
435.98596 -415.27032 45.1408
434.85077 -458.63574 123.3589
426.23529 -458.63574 121.27292
420.32861 -472.72681 0.63746285
453.58002 -416.36237 142.70146
450.05698 -429.92706 0
451.85925 -454.59741 4.7114444
409.74731 -459.50589 7.4999967
458.0213 -498.76376 0
446.18079 -501.13123 141.12634
431.43408 -444.13043 7.4999971
404.54749 -476.25308 6.1991658
478.66635 -455.13641 1.9855287
423.45758 -450.12512 121.25137
449.85324 -446.26196 70.445969
465.37634 -477.06497 0.63746232
457.5914 -449.54956 0
433.63919 -487.91727 63.283932
426.79077 -519.90527 116.73415
431.37952 -427.92712 149.99994
408.58002 -434.37164 130.83501
454.5614 -497.69449 129.99184
427.51709 -473.19867 7.4999971
426.96747 -443.4599 7.4999971
415.95023 -458.63574 145.95822
426.94559 -440.44153 104.99995
425.68652 -415.76434 149.99994
454.6745 -477.67511 41.030781
445.37411 -477.8916 127.8578
449.24567 -465.33563 7.4999971
421.12051 -457.61963 136.64923
426.70169 -449.24347 125.96341
451.74854 -458.63574 123.25657
449.34747 -451.08023 0
453.73804 -498.50919 7.4999971
422.52945 -479.08121 7.4999971
407.35748 -477.92108 106.7337
416.71494 -488.46252 64.937714
453.02304 -481.60507 82.576324
441.63165 -489.05878 140.1178
447.10681 -467.52502 28.229984
479.21555 -507.31177 82.072739
428.87476 -458.11932 0
404.88483 -477.52277 1.9207841
469.23563 -484.52563 16.102703
442.17596 -449.86212 91.146866
451.1488 -473.40918 16.607334
454.29974 -477.16025 17.42931
413.29303 -456.50885 32.907734
424.26978 -413.63574 108.11797
425.27032 -447.83936 7.4999971
450.41245 -442.70776 51.67981
439.491 -420.9295 37.802708
436.41019 -488.78375 64.253998
420.02921 -458.63574 108.06078
428.25763 -438.1763 49.868744
467.45026 -448.67657 7.4999971
471.03918 -501.19138 2.4627864
428.3476 -410.38632 58.694263
417.48636 -501.50458 60.507008
464.20276 -492.21533 0.63745987
414.18607 -492.14838 131.38867
462.9537 -492.22507 0
426.93872 -492.29688 0
418.96588 -516.22919 130.85928
456.72388 -459.84622 0
429.46606 -478.98676 7.4999971
407.26349 -472.11328 112.23419
433.66879 -488.96545 49.447502
426.4697 -469.32297 32.81179
453.28168 -488.23795 102.37025
453.58002 -425.0383 125.4485
437.76691 -518.80463 111.66431
408.58002 -437.28265 139.56502
455.68542 -474.91595 127.52202
445.6344 -487.60309 9.29105
443.69626 -453.80377 93.303055
420.92502 -458.87408 138.3222
463.09521 -464.29504 22.826443
450.22485 -456.14972 25.205547
418.00745 -502.85132 106.50072
417.99231 -449.46225 4.9767466
421.70224 -467.54083 19.182268
428.60492 -450.89471 149.99994
441.29694 -474.09189 134.19221
408.58002 -456.92624 141.61559
403.59955 -480.92435 5.7585106
427.2981 -458.63574 123.01738
428.10602 -431.08194 0
409.02328 -506.37787 60.31134
454.34967 -452.79422 64.106804
410.7457 -500.85593 122.50528
463.01685 -476.80798 7.4999971
454.34677 -488.03583 127.62183
450.53296 -436.9989 149.99994
444.55554 -432.72552 0
414.41556 -435.11011 0
448.3028 -484.91742 41.014683
422.26361 -454.82629 104.99996
433.95276 -470.53082 0
441.43137 -446.63824 112.95567
420.56183 -473.00143 46.16468
414.16321 -472.44992 0
418.25919 -456.26733 104.99996
462.57135 -460.39465 12.695563
468.25613 -432.965 7.4999971
453.23685 -458.63574 109.74258
426.38593 -463.1228 7.4999971
413.36859 -458.44769 104.99996
421.20386 -413.63574 146.50916
450.67377 -435.55447 33.84333
404.61023 -505.44388 52.581009
446.42548 -443.15228 149.99994
428.12747 -453.6438 25.197102
438.64139 -486.0296 38.530472
449.2179 -431.54636 36.543541
434.4696 -465.06891 88.879501
458.98178 -454.53708 3.8093948
427.07938 -478.99213 0
413.97308 -473.29477 0
441.9425 -413.63574 141.35643
449.3049 -487.52209 97.285881
408.58002 -447.30051 144.62202
463.33575 -464.36151 17.334492
455.82184 -485.14627 58.576607
449.25568 -465.01678 24.501627
462.31854 -484.22409 109.59245
422.99612 -480.47885 0.63746166
432.1076 -488.14819 49.958672
444.60104 -475.69208 7.4999971
408.58002 -422.64502 115.4028
435.2179 -506.76392 5.2414975
414.10672 -491.18848 130.01303
456.30862 -489.20721 0
419.42426 -443.9024 104.99997
444.95813 -447.69785 0
453.51395 -453.92966 26.995024
423.87997 -450.14697 1.0474839
448.97668 -470.21774 25.540363
443.03348 -486.35431 39.307495
448.51498 -481.35284 7.4999971
424.54791 -426.54044 149.99994
442.65106 -448.39517 7.4999971
453.29184 -474.74603 18.767384
436.93433 -451.46027 149.99994
415.77948 -490.67328 133.13387
449.61362 -413.63574 106.55247
450.50314 -432.9444 39.663101
432.98376 -469.12622 87.501198
428.12329 -489.61111 3.1911974
476.77774 -479.27942 4.782197
462.23517 -470.78906 0.63746285
442.81244 -442.26941 24.385174
437.25824 -480.15228 33.066879
424.30536 -458.63574 117.75452
447.03806 -487.74399 73.14119
419.73438 -438.55353 7.4999971
408.21246 -485.875 2.6772435
452.57526 -458.63577 108.51746
417.35773 -458.63574 121.1315
463.63092 -482.0397 112.34704
413.75842 -510.22144 120.5545
451.59424 -481.88995 97.279572
461.62946 -470.19748 41.540142
424.32611 -425.98724 39.319389
470.71439 -491.05832 6.8001781
410.42889 -451.2905 7.4999971
434.12012 -510.97076 142.01813
436.99609 -441.57257 111.50047
423.58258 -451.91745 16.875607
453.58002 -418.79495 127.42975
420.27063 -465.88498 96.609528
455.94345 -469.67783 76.955109
408.58002 -453.68805 131.93497
434.45044 -463.22339 147.19461
408.58002 -454.91516 125.42056
419.87219 -465.88464 96.974121
423.79218 -411.95499 55.671318
420.22699 -449.00516 0
450.92471 -447.39246 149.99994
436.86246 -463.37183 147.76834
466.39136 -490.04999 7.4999971
448.48041 -475.56461 9.350956
446.5433 -499.61133 99.305275
427.50702 -481.13663 7.4999971
447.77893 -466.85565 79.512634
454.61462 -507.53949 6.3811798
437.23007 -496.36798 93.744202
429.71271 -434.25659 50.989403
420.02908 -413.63574 145.57721
456.03864 -458.79236 25.792564
469.55563 -440.01926 7.4999971
408.65314 -483.04327 115.86185
404.79565 -450.08865 3.0176008
463.41742 -481.67169 116.02998
434.31528 -521.54712 120.74607
424.02756 -516.80798 134.55751
428.91278 -464.84991 13.653858
425.64581 -487.4314 140.38145
423.36392 -459.96423 98.0681
414.65155 -432.0278 2.0118377
468.06622 -503.93799 13.469028
451.62317 -458.4537 73.136185
427.92825 -485.38895 52.197571
442.0249 -463.32574 25.291462
412.41232 -503.71997 117.31692
475.35913 -456.68472 7.4999971
456.76752 -454.68536 0
427.04752 -458.63574 106.90294
448.69928 -448.95343 104.99996
448.70535 -451.98175 119.12632
413.9472 -458.63571 116.10258
424.4314 -483.34656 93.154449
454.23621 -506.91373 10.416347
429.36899 -472.37607 89.726273
424.0665 -471.93213 15.160162
417.23691 -465.88617 39.569958
431.85196 -428.49747 0
429.21399 -458.63574 125.27441
411.01367 -492.4704 54.979065
439.37347 -439.55396 104.06848
444.88947 -490.72195 60.187542
411.88959 -510.81268 60.300674
455.62537 -466.65765 126.9024
410.43311 -460.55234 7.4999971
454.42468 -496.93066 130.39011
448.27548 -488.98917 47.90934
422.22925 -498.1402 6.7980118
434.8512 -489.59241 50.156593
423.51929 -517.63751 114.84838
424.50778 -438.58182 149.99994
446.55786 -463.63739 140.2282
465.13928 -459.94397 7.4999971
411.35327 -472.19559 120.71962
429.26663 -437.2829 55.663311
410.78986 -489.15491 111.27223
439.88788 -478.98099 130.46457
410.99152 -462.04901 0
454.70795 -458.49371 64.759575
424.15033 -413.63574 115.29573
418.74319 -458.91544 106.68079
471.84665 -486.18073 75.938698
414.76086 -457.39404 149.99994
439.18704 -492.38763 92.971497
444.02057 -458.63574 114.16367
470.52432 -452.08215 7.4999971
411.28391 -431.0589 149.99994
417.55707 -433.90274 0
453.58002 -451.83331 118.98811
422.98474 -491.73495 0.80251098
440.51746 -438.45435 104.99996
467.09845 -484.93744 0.63746148
415.72894 -466.90497 65.316162
440.95782 -491.09882 0
420.9953 -478.2981 0
426.79333 -458.19183 0
457.99686 -478.87241 125.38596
443.72668 -477.36273 31.701296
453.58002 -437.94904 125.58163
431.27417 -515.26123 137.70532
452.53061 -451.48419 149.99994
424.3736 -447.99744 7.4999971
409.19916 -483.75214 103.11897
456.66425 -488.54068 123.17841
413.64941 -458.93256 9.5512886
466.80569 -446.39813 7.4999971
424.92181 -459.41559 63.070057
463.99161 -435.03964 7.4999971
448.44983 -470.62561 91.919838
431.21295 -413.63574 140.16772
459.41367 -482.84122 0
478.51566 -454.58441 7.4999967
423.93048 -458.63574 110.93125
434.80246 -449.99448 97.975365
453.65085 -478.7038 40.82502
426.53046 -418.25195 52.683998
443.95673 -419.59595 149.99994
407.9729 -475.1424 0.63746244
448.02005 -489.08923 66.357994
456.58627 -478.72345 44.842392
445.51135 -457.61612 104.99996
424.8996 -459.59506 69.107178
440.73126 -485.18542 37.243507
453.58002 -416.91901 138.21857
435.51968 -487.83447 0
449.27005 -441.20639 104.99995
461.51532 -482.96423 119.58662
447.1134 -474.95734 4.030201
458.83069 -478.8222 0
468.30521 -472.33911 9.4115686
424.33304 -432.1611 45.880501
456.33472 -457.60355 57.101959
432.15881 -429.38055 7.4999971
451.65295 -455.20898 108.46867
412.48029 -472.49063 0
449.78378 -413.63574 149.77155
408.61865 -468.9389 0
416.34094 -474.49057 134.80406
459.94485 -470.39703 101.03542
442.12903 -452.65723 104.99995
427.23999 -462.56897 67.983139
448.58389 -453.09354 123.38219
453.58005 -415.19177 148.48993
422.41791 -469.63629 74.086708
447.30173 -436.90973 53.898113
415.82684 -498.37924 107.74151
412.1698 -498.14441 114.82293
412.03851 -509.77621 56.5289
417.08408 -454.29236 7.4999971
466.15759 -492.50812 0
430.47498 -467.59674 77.86377
436.66922 -427.97839 29.75201
455.98849 -468.39365 75.225014
470.08646 -483.52011 71.79055
453.58002 -447.26352 148.82861
414.86902 -490.1597 130.36957
435.29489 -420.50385 5.002851
447.25909 -474.70789 5.7328901
435.00061 -455.12836 149.99994
447.78143 -482.08517 1.1025367
410.92969 -476.77365 62.51339
449.53137 -436.49768 0
427.86505 -449.18918 0
439.7312 -463.60172 0
422.67859 -469.79269 40.408657
449.73737 -471.89505 24.613094
423.50464 -517.28552 133.54425
443.72186 -499.66309 0
442.90576 -447.32959 109.03516
467.05695 -461.52792 35.509083
429.70343 -438.32745 27.8438
478.2912 -496.28802 84.466171
425.48187 -419.95822 39.726868
431.62994 -413.63574 144.93365
453.58002 -418.88184 142.32265
478.37881 -456.35547 7.4999971
419.77505 -460.07239 138.81866
420.22858 -474.55283 49.048599
452.77444 -499.09784 7.4999971
427.17413 -437.9205 53.532669
429.74002 -437.25003 0
451.9841 -475.97162 15.228603
437.76352 -494.66592 7.4999971
418.15735 -469.87582 32.165413
467.46564 -442.86646 0
455.26251 -504.25253 7.0055666
441.18765 -476.74423 30.470119
446.29803 -485.49371 10.799421
455.2323 -500.37894 126.87492
419.14005 -492.5401 102.15138
431.4715 -487.26428 61.539024
435.38416 -474.25632 30.637554
408.58002 -453.96609 125.59891
439.87512 -442.99969 73.588058
432.46286 -506.45709 143.2625
468.86578 -487.91931 0
436.49524 -438.19348 104.99995
425.72284 -458.63574 106.91922
466.26151 -467.50436 14.422867
419.04474 -449.21637 7.7907834
411.11548 -458.63574 137.41422
406.55673 -444.94 6.682251
452.0119 -458.63574 108.15075
469.91855 -504.2002 73.963623
454.74188 -500.87781 0
461.31885 -453.69427 45.288601
423.90338 -449.88379 116.92239
468.00125 -501.68326 16.412714
457.13763 -451.92896 0
463.75958 -458.6745 7.4999971
427.79236 -477.83578 91.305847
438.56683 -459.80847 143.61131
415.67862 -446.20157 104.99997
425.11221 -520.46204 126.25454
422.66498 -485.21579 134.86465
442.36108 -463.62537 89.597183
408.58002 -422.58182 111.09899
405.79068 -467.75562 7.4999971
427.71768 -470.42633 0
444.85529 -413.63574 116.98773
417.66614 -476.00961 133.07011
430.3927 -439.61456 149.99994
467.29449 -483.27917 16.851305
454.7735 -457.612 59.428299
419.4538 -502.65152 104.91751
451.54382 -454.62198 113.68377
452.50861 -457.03723 149.99994
453.88123 -444.4458 30.939472
451.22354 -487.8075 68.176079
433.43701 -462.6814 27.02
429.09436 -442.55429 104.99996
422.40195 -472.45026 75.837837
440.53479 -479.57614 32.059875
444.90164 -498.00772 7.4999971
458.41882 -486.71173 0
437.35175 -447.72522 149.99994
451.71167 -486.9852 18.491117
453.01968 -505.34171 12.589241
425.85971 -446.26111 0
428.64767 -419.36844 37.73772
453.3399 -434.25177 104.99995
447.60983 -511.21722 135.23463
409.495 -508.30774 54.084839
469.83902 -434.9989 5.1509233
417.25864 -490.77643 136.04248
443.34769 -458.63574 109.81035
412.41232 -484.03696 98.094849
432.55353 -490.87906 7.4999971
461.60425 -484.49503 67.359276
408.58002 -430.16708 105.50311
416.47812 -458.63574 128.11388
429.67993 -461.35562 72.240273
433.15448 -501.46719 98.413971
408.58002 -427.29974 133.73628
419.3707 -475.86063 137.8028
406.97253 -465.64145 7.4999971
442.98557 -494.97693 0
466.21024 -475.41827 17.440498
451.89771 -442.79083 49.140404
423.61804 -429.40317 0
418.12378 -465.2428 42.896065
413.3194 -479.48181 70.799149
429.02789 -508.85339 102.31072
429.96997 -456.19751 104.99996
453.85934 -424.06287 7.4999971
419.8656 -477.72668 0.63746202
465.19153 -460.58191 7.5867281
418.42303 -454.92557 0
458.11371 -491.75763 22.201366
435.82336 -414.91904 104.99995
426.76865 -453.22421 132.76807
414.97418 -512.4989 122.27554
423.95111 -474.43951 91.900513
427.27325 -466.49271 91.706001
419.23166 -463.39194 58.279217
402.5386 -494.57727 59.920475
417.56189 -467.40817 0
449.40802 -458.63574 143.39923
410.91074 -500.30762 126.56238
425.60406 -476.19626 41.928288
437.57672 -489.27386 44.911438
428.01425 -417.01779 104.99997
413.37732 -468.32739 139.992
441.86804 -458.63574 141.41216
403.79718 -459.44153 7.4999971
412.367 -496.00024 10.828717
443.27655 -467.13739 0
453.58002 -435.07626 114.0643
426.13965 -440.6803 149.99994
432.0733 -508.18011 101.38649
467.55908 -473.32446 72.345413
454.82449 -504.40427 4.6853404
451.19482 -458.63574 122.40317
444.83368 -467.70035 141.7504
453.58002 -449.02747 114.44629
427.96423 -413.63574 140.32703
457.18616 -492.86346 22.067127
447.56564 -475.6275 1.4991319
423.38098 -425.02704 3.6156011
476.53668 -447.08929 1.7637917
419.13971 -517.12732 123.14963
411.13901 -470.63531 102.49652
437.54523 -449.80499 129.96423
446.56976 -430.922 7.4999971
441.41953 -458.29492 77.962433
408.79007 -483.79584 0
431.12219 -482.50421 134.34117
458.51852 -480.72052 54.37048
411.71454 -462.73987 7.4999971
441.09698 -450.0777 129.32156
433.211 -427.38632 0
444.72842 -432.35541 149.99994
442.53284 -473.44949 130.30551
422.91629 -506.51169 103.93668
442.47479 -456.68643 76.01088
430.50232 -455.33539 72.544838
449.99658 -458.63574 134.38748
431.11691 -453.69138 24.798882
439.25027 -444.16678 74.421928
411.52048 -499.03101 129.29253
431.53937 -421.405 5.2996068
450.08456 -461.73767 0
416.8631 -458.05737 124.53406
452.70834 -487.39832 67.593124
426.60104 -481.64777 17.484959
457.29553 -486.556 20.56072
454.92291 -454.62756 58.930435
454.60504 -485.95251 72.492577
450.07294 -492.086 100.50222
421.86127 -495.19254 1.9237052
452.6933 -509.34686 124.55672
435.72223 -444.37927 116.10682
424.82928 -432.53259 7.4999971
453.57999 -423.52277 123.50841
419.81357 -490.40869 0
460.91644 -455.25745 8.7872534
417.44403 -511.89694 114.35187
452.02289 -508.85645 113.16637
467.62952 -481.47311 7.4999971
409.77069 -510.76556 59.213272
453.60321 -457.01465 26.277655
448.17545 -413.63571 138.62515
449.71179 -435.54144 31.978403
424.09396 -476.14041 0
480.36462 -504.94363 83.818161
429.97498 -436.68811 7.4999971
411.96021 -462.91815 15.9963
428.61487 -408.043 54.856495
454.32291 -482.2085 126.52425
417.41449 -452.78552 11.603642
415.06485 -461.40329 127.82179
411.99567 -489.97437 19.045988
422.87479 -415.0556 46.537415
455.16089 -450.4209 52.500706
408.58002 -439.28522 139.42653
432.11783 -442.79208 0
446.10944 -448.73743 7.4999971
434.2962 -486.8952 91.799927
460.40189 -449.23019 44.285995
453.58002 -420.1297 107.59503
430.27359 -471.96658 5.3702683
447.95819 -413.63574 136.93602
415.11871 -509.69482 134.80984
452.07513 -431.1871 104.99997
408.58002 -430.33264 133.11395
408.8493 -484.56277 114.81416
471.70615 -501.13193 9.8245277
454.8623 -473.35437 35.897713
415.22382 -485.3555 0
462.92664 -467.51819 69.942383
457.4588 -461.15891 59.844269
454.93692 -451.60159 54.150539
428.23593 -457.8988 94.434944
453.58002 -453.22321 125.93199
437.30844 -453.04547 23.422285
462.57092 -457.14465 9.5622578
418.48331 -413.63574 107.50823
448.59906 -453.53351 7.4999971
454.0799 -507.51047 120.07455
454.77002 -457.36221 63.007217
458.44254 -461.70596 7.4999971
442.26062 -413.63574 135.81992
462.24625 -471.32059 103.78611
430.8493 -463.23526 145.02219
466.75333 -490.19897 7.4999971
463.07178 -467.87598 71.321945
423.21701 -488.76926 7.4999971
427.39282 -520.00867 130.075
422.01694 -452.95822 127.71152
412.43628 -413.63574 134.64529
422.61166 -414.07635 48.59219
445.77814 -458.63574 107.84274
417.24249 -484.29276 0
462.72638 -448.44385 0
466.51453 -483.48413 7.4999971
413.75409 -511.15161 125.10292
468.46875 -471.70947 8.8378582
419.9931 -474.18921 0.63746262
462.88766 -473.66168 104.24133
467.13806 -472.51279 72.110825
444.08322 -508.43738 103.60829
448.15945 -505.28363 105.01756
413.11304 -447.68314 149.99994
412.84537 -445.37134 104.99995
410.70731 -413.63574 106.40426
416.81061 -420.26947 149.99994
428.86377 -456.97394 12.467133
449.45282 -466.16687 14.383351
434.60974 -459.44354 7.4999971
451.70187 -483.07379 42.813137
416.37714 -461.77301 44.842396
416.86108 -505.10794 108.9928
479.0477 -467.71765 5.3244281
459.58914 -472.04648 0
448.09851 -413.63574 137.27455
450.6062 -458.63574 135.22005
444.06485 -485.86133 83.755157
416.88727 -456.85214 25.525225
455.57147 -469.78238 77.240692
441.96747 -458.63574 139.98074
444.87701 -413.63574 140.98355
469.40945 -506.6001 79.826958
441.61758 -421.49451 43.49091
438.95651 -491.59555 7.4999971
455.19672 -505.17087 0.89300108
432.198 -438.53851 0
461.36346 -426.62335 3.8093593
467.8139 -488.36536 0.63746083
466.59802 -459.01782 38.015236
426.65125 -490.77539 1.7094007
422.02448 -413.63574 117.66708
453.58002 -425.77026 118.78816
439.99402 -458.63574 117.06636
403.67877 -477.32507 10.097956
443.08392 -458.63574 127.80554
420.72296 -517.92743 129.20415
458.84503 -499.93005 20.278456
443.16995 -498.32596 95.598747
413.55237 -480.51062 7.4999971
455.77271 -485.94403 0.63746107
450.53796 -454.29779 67.701126
428.5611 -461.95166 19.952023
442.00934 -430.31372 149.99994
441.55389 -430.03528 104.99996
450.25082 -427.20819 149.99994
414.90042 -465.62543 141.18738
452.95767 -442.69904 55.124962
430.44415 -465.12814 8.7925196
419.19263 -444.897 0
467.67126 -481.45975 81.076065
453.58002 -422.04736 127.56001
448.07169 -485.14084 95.46666
408.91141 -498.89731 53.279099
456.89465 -475.80432 98.084274
402.98993 -460.6055 5.5169578
451.27484 -501.71698 106.64467
443.39886 -439.57617 69.618881
419.35925 -450.33273 30.914265
447.20267 -515.26672 113.97691
423.90845 -452.3735 55.066048
428.8006 -413.63574 115.47328
435.06989 -504.47098 100.26997
451.26141 -429.76013 104.99997
432.72156 -413.63574 116.38252
454.11627 -449.31219 54.509094
429.79767 -412.02435 44.363247
459.44705 -474.1604 0.63746279
418.64035 -466.86472 97.249939
479.32132 -464.54459 7.0580106
425.62814 -433.73279 47.419704
419.42786 -458.54678 149.99994
470.58298 -455.23892 0
409.77112 -491.87216 15.013918
427.01105 -447.73401 115.2261
417.2941 -498.24084 6.9609337
470.27072 -499.49341 88.401474
432.27588 -475.492 0
415.33609 -460.49844 120.0424
475.8208 -481.80573 3.6855881
420.99637 -414.86618 104.99996
427.87637 -444.68002 27.119781
441.70801 -432.64423 50.53257
413.12219 -466.63535 123.72215
430.44067 -480.13422 82.340805
450.5108 -413.63574 144.99915
457.05716 -476.47128 20.939842
464.44308 -473.78128 116.27695
445.72723 -428.03345 45.238899
430.28534 -461.20978 142.29645
426.04224 -442.6969 56.208031
446.45667 -455.91473 95.26387
443.62634 -448.82547 7.4999971
458.7074 -484.2395 0
448.22595 -457.30273 25.010027
453.58002 -457.17044 143.80617
424.77933 -465.65033 70.333534
423.34906 -420.17181 104.99997
440.13068 -489.47473 44.256638
457.19165 -452.1774 29.527706
444.47305 -470.83978 29.168686
472.74002 -496.56012 13.280653
433.21945 -461.93243 0
455.14832 -504.5787 119.78191
463.56213 -482.19781 112.45815
431.4429 -479.95905 37.974289
456.69238 -464.40131 124.81596
406.60324 -480.50189 112.32168
408.58005 -417.92627 112.52051
434.02155 -468.20703 0
410.54535 -414.3717 149.99992
457.09482 -492.2887 118.79605
430.62631 -450.73819 0
433.51392 -483.50333 83.321457
432.79047 -413.63574 149.09073
456.58887 -466.5083 99.98616
418.78641 -454.11633 16.646385
435.12027 -489.69269 50.159611
442.00168 -464.02893 146.19197
425.50702 -455.91125 0
416.59604 -510.91083 114.6037
429.01044 -444.12143 122.14456
428.60156 -456.9292 0
412.48035 -470.46497 121.79539
460.68188 -463.95856 114.96401
441.01648 -516.92584 134.11185
427.23041 -459.77521 94.302322
425.36942 -451.00781 27.050161
423.47778 -469.50604 34.892757
408.58002 -458.29303 125.2103
411.63623 -470.2785 101.81634
408.58002 -433.6008 114.2066
408.58005 -418.18185 112.82138
445.18842 -437.74799 60.514183
429.52435 -475.93768 135.65503
415.4115 -465.4884 33.980873
430.29065 -454.39893 95.401001
446.47672 -497.16348 0
427.08545 -509.03214 103.15472
410.57959 -487.55664 7.4999971
472.2114 -488.97485 7.2634559
408.58002 -444.70728 122.62466
426.70428 -490.13443 95.446793
442.70233 -438.30582 25.671095
447.65625 -458.63574 122.76022
420.96124 -449.05115 7.8687367
428.60068 -424.78485 51.213276
474.15634 -507.90256 74.150932
449.53049 -452.55322 110.30742
448.74512 -498.57336 1.341186
413.34058 -467.98041 139.76244
452.13593 -510.8208 120.30145
413.89059 -509.51401 119.07449
418.56702 -492.34717 7.4999971
439.6908 -475.07407 7.4999971
451.88586 -450.04141 64.652969
467.12158 -477.53998 0.84870481
437.51041 -451.99899 133.1508
453.58002 -449.59396 119.62122
407.11127 -467.85355 0
411.80267 -474.45679 0
446.08899 -466.35437 140.76022
456.82611 -446.85901 0
445.3569 -497.99817 141.46384
403.7626 -462.97476 7.4999971
405.76331 -469.66748 7.8116903
439.97318 -445.73462 114.86456
414.80157 -506.70654 136.48898
429.51324 -458.63574 118.75775
436.91595 -465.82251 81.26355
432.61774 -482.96039 82.475449
417.50943 -486.66092 60.421112
424.05481 -455.7182 7.4999971
453.57999 -419.84882 112.03746
443.51801 -458.63574 124.0655
453.31415 -492.03656 0.63746023
424.47934 -452.57822 149.99994
459.34299 -475.40494 0.6374625
412.56891 -491.23495 126.25266
426.68439 -452.79187 0.63746578
414.94226 -468.64349 0
420.95792 -461.39709 0.63746452
428.48264 -480.11014 1.66265
415.18091 -463.32468 136.59242
459.23175 -478.74268 27.922647
478.8385 -468.23062 7.4999971
422.83026 -453.22482 129.80513
477.31396 -459.09003 7.4999971
421.43912 -495.29373 102.16363
416.53436 -484.41199 68.536476
439.33072 -475.80927 133.71156
458.08499 -444.87689 35.895359
437.20407 -458.63574 115.4447
451.97253 -469.82654 80.007935
449.29367 -452.70657 119.53278
408.9787 -492.97314 5.6270313
432.22253 -425.90118 0
419.22614 -463.57672 60.274399
439.79672 -441.27408 123.43128
432.95798 -413.63574 143.76022
432.20081 -498.28329 0
422.82043 -453.85315 131.19522
445.15799 -501.11081 101.32228
423.72092 -516.12402 111.75294
448.45981 -462.23712 2.1405742
459.93109 -472.91287 45.295052
455.7803 -453.66431 54.459164
421.50476 -458.63574 132.81085
460.83487 -465.4823 120.55035
410.04459 -481.48242 60.42424
456.11707 -451.74753 59.154289
442.30469 -487.9798 74.810043
435.53543 -442.93195 117.01626
466.36536 -461.0451 40.748009
436.77225 -501.05359 7.4999971
424.40942 -477.31317 135.77327
409.67834 -458.63574 135.21762
460.62552 -452.866 0
424.06244 -492.50854 98.739456
428.5686 -451.79456 6.8406892
422.91583 -468.21295 72.886292
435.68106 -458.63574 116.51949
440.18768 -501.81662 95.877335
442.27756 -479.61548 32.575962
408.58005 -422.89862 109.02336
429.89233 -486.28964 48.260723
463.20712 -474.33777 120.93077
451.82236 -446.53958 58.272099
408.62354 -474.85437 118.44634
453.56897 -476.32971 28.96064
445.11401 -413.63574 147.57774
453.58002 -448.73737 125.95167
439.84674 -441.55801 7.4999971
427.93591 -455.51703 136.47563
429.45486 -486.60355 53.085209
421.82544 -463.14978 7.4999971
422.29773 -443.22946 33.169182
444.2114 -427.7077 46.698269
438.9447 -467.1189 86.342079
445.49707 -414.17313 149.99994
457.33276 -443.14789 40.355328
417.65894 -458.63574 113.29062
403.23639 -499.92343 51.301426
408.58002 -417.65347 119.9518
433.22839 -456.17432 149.99994
408.58002 -436.98608 132.74797
456.83313 -506.55338 1.4677541
425.22748 -452.21899 16.816736
447.93265 -416.08228 104.99997
408.58002 -415.20337 133.39958
453.58002 -431.56909 141.87744
442.09595 -456.89282 104.99996
445.76505 -513.49487 108.82159
436.69455 -422.26379 34.34449
449.72681 -463.33987 0
464.77734 -484.55859 7.4999971
441.74722 -488.13855 41.54425
431.28345 -440.14365 68.209518
428.25403 -411.62158 44.796356
445.4328 -490.9516 55.565056
448.03497 -488.0979 15.602969
435.39453 -442.96899 7.4999971
415.56802 -451.27893 104.99996
473.73743 -441.01981 5.8202124
434.00668 -513.25079 139.99683
471.32159 -445.53937 7.4999971
404.3866 -451.6279 6.0436716
445.77155 -487.2402 10.050559
408.58002 -422.80249 106.78614
449.39578 -466.47171 16.695761
416.10028 -420.21201 104.99995
464.28201 -501.65564 0.63745821
429.44153 -440.5929 58.023865
456.51453 -459.59137 0
452.03778 -458.63574 149.4458
447.1236 -429.92944 0
453.58002 -423.59113 128.10243
410.30911 -477.8941 65.794785
467.89264 -501.3782 70.488297
416.64886 -487.6871 96.287117
423.73318 -436.86832 40.046185
467.31372 -473.68573 74.475739
464.83246 -456.95923 41.145241
444.6673 -444.66159 73.434525
440.73267 -488.29578 71.823853
434.9617 -436.26062 26.208347
436.19519 -437.88354 25.336697
462.9194 -464.36017 7.4999971
452.11325 -451.46042 0
419.3876 -461.82123 52.148239
469.80942 -482.74677 7.4999976
418.1106 -475.28058 0.6374625
417.26364 -482.27234 57.739132
475.56348 -508.7337 77.125946
422.01306 -483.33807 63.703636
447.47946 -440.94269 0
419.35168 -413.63574 146.05611
451.34177 -454.56589 110.2299
439.07288 -458.63574 149.022
419.94186 -465.17422 97.444077
409.20911 -484.80588 58.623138
404.9422 -504.00037 60.591331
453.58002 -452.19025 135.1539
449.79791 -483.61627 0
423.14337 -442.94366 7.4999971
431.02307 -479.22366 89.596054
411.86859 -449.03278 7.4999971
409.50714 -413.63574 144.216
440.71844 -426.24847 149.99994
422.00146 -462.00281 142.79742
453.9726 -454.57886 7.4999971
453.57999 -413.9809 134.0074
412.70047 -479.74612 96.895584
408.58002 -429.01013 142.8826
415.05875 -465.13318 0
477.5029 -450.72821 1.9482745
428.08051 -458.63574 114.00139
447.45175 -506.83002 138.71144
449.85846 -506.16937 107.08745
450.85541 -485.79416 131.03578
453.57999 -443.61829 130.92722
445.85419 -454.06696 24.29464
418.77048 -469.0636 34.608231
430.34622 -462.41974 7.4999971
447.82825 -457.69653 74.343369
450.96246 -442.43204 7.4999971
426.25262 -432.41309 48.443314
426.74225 -458.63574 118.01152
442.6586 -434.19638 55.380035
426.10349 -426.39539 0
447.50925 -420.48346 104.99996
426.90121 -449.31924 0
416.09546 -425.14911 104.99996
457.7963 -424.44574 6.6800718
436.40747 -520.8468 117.25801
462.06653 -457.97226 7.4999971
425.02087 -457.73853 0
451.32443 -455.11783 5.6775117
471.37912 -437.75131 0
467.16888 -440.31564 7.4999971
433.31088 -498.12741 7.4999971
419.90875 -447.59564 149.99994
429.51105 -464.99045 145.19933
422.6579 -452.04803 58.786316
435.46942 -502.2193 0
439.25305 -461.3866 0
448.12561 -467.05432 8.6630726
421.53098 -442.10477 0
440.54514 -426.21021 7.4999971
428.56589 -438.67093 7.4999971
472.95081 -484.08682 4.2013736
419.60458 -494.66354 141.32909
428.76035 -440.67184 63.769787
454.74271 -480.73682 0.63746202
422.71304 -470.67438 15.853598
463.16098 -464.34369 7.4999971
436.26089 -467.61938 0
470.0361 -471.21915 4.6859045
408.58002 -432.51535 133.79962
447.63876 -474.77606 7.2892785
475.40955 -492.34479 80.861771
424.69455 -451.3483 27.172113
424.10101 -456.8252 68.515427
453.58002 -430.00912 131.68326
408.58002 -450.03329 130.73479
453.58002 -416.46753 134.81464
454.42163 -460.69394 19.652094
424.99902 -461.6239 0.63746428
452.91602 -486.61868 7.4999971
456.95468 -481.85675 0
437.13416 -435.42212 104.99995
449.91132 -496.01068 104.37909
451.45715 -433.19553 149.99994
427.7168 -458.63574 129.74796
454.62762 -429.63995 0
427.15002 -413.63574 112.82472
421.8075 -476.31842 19.427046
406.01855 -499.92978 63.5686
462.00464 -452.26138 42.97229
440.25565 -462.82278 24.955147
426.5462 -443.59482 149.99994
443.09381 -428.85452 7.4999971
437.30542 -436.10358 65.158676
416.48557 -493.952 17.723034
414.19885 -430.39368 149.99994
449.3316 -480.38513 11.883875
423.51974 -413.63574 137.91727
451.14447 -487.27036 48.741821
432.37997 -436.60748 60.810215
442.55231 -445.47754 105.30741
438.35461 -427.1936 30.568512
414.56055 -489.73233 128.88301
454.45776 -475.86853 20.649055
445.95535 -448.89941 117.70653
451.37915 -511.70264 122.29048
460.26477 -484.77618 104.89265
450.24725 -474.96133 0
453.66394 -495.5415 131.87149
435.74442 -453.79144 23.847544
416.00879 -468.88019 97.972122
411.42566 -498.5542 128.65288
427.21158 -455.35318 97.835014
417.4957 -448.64828 7.4999971
418.58551 -457.98428 47.808033
447.73016 -483.08798 0
475.09723 -454.75586 7.4999976
429.78989 -413.63574 137.92487
452.40878 -429.52289 7.4999971
408.58002 -433.23306 142.23674
473.61716 -477.76389 0
423.95267 -474.13116 91.908669
478.48502 -472.84943 1.6160016
453.13336 -458.1637 17.080605
445.51962 -452.85065 24.127117
430.02249 -476.6933 3.439321
439.53979 -430.42633 28.576559
403.87927 -481.39398 10.797712
457.1037 -457.99548 26.701298
418.42212 -431.14331 149.99994
433.32138 -432.49686 0
474.87503 -453.60522 7.4999971
448.6702 -496.14655 100.67433
430.40173 -442.41617 126.10542
452.60202 -486.52518 100.46325
431.67166 -428.33139 0
410.5184 -503.37518 51.406597
414.27271 -453.39612 7.4999971
433.72696 -451.02606 76.127426
431.25217 -439.54614 124.15601
473.37738 -485.35287 0
464.51169 -449.27353 7.4999971
422.66541 -450.02637 104.99995
422.71802 -458.63574 123.53842
448.20404 -474.97424 8.7660656
416.23938 -458.91473 121.23118
435.2843 -472.34723 29.93387
452.71399 -453.62039 65.432297
425.97272 -483.27753 70.51413
448.29733 -450.09406 149.99994
446.02655 -500.54291 100.81313
442.52475 -500.15399 95.977661
431.37595 -471.50278 0
420.9519 -413.63574 111.89822
413.91364 -503.12476 113.19896
446.5336 -458.63574 121.81967
428.0744 -520.25665 129.62537
425.11841 -473.05347 39.779209
428.02774 -430.94586 32.318653
437.19467 -458.63574 132.30402
447.67755 -474.31964 1.4585706
441.24594 -479.40082 32.080765
457.89642 -455.62451 14.95022
479.12329 -460.435 6.4539642
418.93469 -450.72229 1.1936653
469.63992 -467.51694 7.4999976
467.60043 -467.22653 2.4289529
414.91748 -442.64691 0
415.98874 -487.08676 57.966461
458.89563 -455.7735 14.004391
408.58002 -430.17636 126.61604
425.37259 -480.65433 74.662483
456.10474 -480.04602 125.878
429.26636 -484.88898 138.69167
408.58002 -429.32153 140.63869
424.69327 -458.63574 143.52222
461.46127 -481.11075 61.788021
462.18451 -475.0531 20.710678
436.31747 -488.33673 0
451.84137 -499.58246 0.63745832
424.16852 -413.63574 149.32388
413.02362 -439.92496 0
469.3432 -455.84454 7.4999971
446.74908 -497.64154 4.5616641
423.66724 -442.07956 45.910923
454.67682 -486.65155 64.721611
414.06049 -463.98965 0.63746452
407.70447 -471.30637 114.69254
434.30383 -453.38974 88.704224
474.09586 -462.15625 0
454.30508 -486.46832 7.4999971
452.39886 -472.19568 128.2928
428.74094 -425.57828 34.200981
422.71368 -458.63571 133.1781
422.45316 -480.5238 54.810303
426.10001 -437.7988 32.261257
449.53043 -416.99445 149.99994
442.81171 -458.63574 144.91431
456.26215 -475.6792 32.305214
411.17377 -493.71036 13.998486
469.16779 -435.06802 7.4999971
439.67969 -451.99463 104.99997
470.2912 -482.6749 7.4999971
435.68765 -455.93924 104.99995
411.10959 -451.50409 7.4999971
428.90964 -485.74582 65.204704
418.07812 -486.0004 129.02687
423.40613 -477.53943 135.14445
419.95004 -455.58728 21.365082
434.58813 -476.29019 32.301025
454.41815 -445.69974 57.302204
467.77939 -484.16797 0.63746142
430.15112 -464.65479 9.907402
464.36987 -453.98883 0
420.01767 -427.0802 6.1892557
453.58002 -438.87997 117.03133
457.43149 -434.21497 0
424.59497 -520.41162 124.80177
421.22272 -421.48038 104.99995
448.69534 -432.0314 104.99995
413.21689 -481.33902 96.44928
452.67197 -508.71973 126.75603
423.76263 -501.0864 7.4999971
407.34085 -484.01221 6.595253
441.64246 -413.63571 106.50627
425.30777 -458.63574 129.37953
416.69339 -469.68585 16.544144
437.34238 -490.12198 48.469078
453.58002 -450.34528 129.61328
419.28888 -472.47375 49.05267
418.24518 -413.63574 126.77844
420.22766 -476.81403 135.9886
453.6239 -438.53217 38.004311
446.61264 -432.48096 30.64155
455.5813 -482.55597 0
427.4812 -441.84711 149.99994
445.33981 -492.4772 7.4999971
451.81656 -413.63574 113.44102
446.60733 -497.22491 4.8403945
415.2634 -438.72974 7.4999971
453.58002 -439.68677 130.06642
423.99228 -468.45377 73.613014
450.87573 -489.8302 133.79166
423.20996 -447.85544 29.176414
460.00275 -476.48181 21.476324
436.49194 -458.63574 125.54639
408.58002 -433.19531 130.76486
445.31335 -434.85336 149.99994
423.79669 -413.63574 130.95171
471.69012 -489.75165 16.178947
430.54587 -458.63574 142.10124
453.58002 -441.42523 121.6176
427.98358 -414.47717 149.99994
412.11993 -484.04541 98.46447
465.07971 -466.6871 10.288949
453.58002 -413.79572 124.06865
453.20264 -477.39484 7.4999971
468.07404 -484.22867 7.4999971
412.12244 -466.71884 105.83205
426.53735 -413.63574 113.48717
427.97394 -497.26041 99.318832
427.34192 -458.63574 127.06917
412.38745 -468.75259 15.341972
455.3335 -454.43793 0
440.8226 -489.11215 140.62631
424.16522 -455.73718 101.61253
415.13419 -503.57141 137.85425
421.87576 -428.10687 0
443.57379 -422.34381 7.4999971
430.75418 -463.10962 8.5643272
464.79523 -496.25351 0
471.69482 -486.68167 79.638626
411.24594 -458.63574 110.59297
464.81577 -458.52847 5.2393093
427.50861 -408.0802 52.527821
448.08984 -457.29089 7.4999971
453.39496 -493.43686 0.63745987
430.23993 -441.19623 149.99994
417.31622 -458.64313 131.36005
426.0343 -458.63574 142.79959
443.74194 -490.96194 50.741341
426.40479 -427.66064 35.728168
458.83542 -448.81421 7.4999971
411.04138 -472.16287 7.4999971
457.69986 -477.27313 98.800468
420.64362 -427.3472 7.4999971
428.81818 -465.01892 13.945314
425.12561 -430.15442 104.99995
413.98517 -458.83698 0
402.73022 -463.61749 3.6266267
449.85989 -442.00238 65.747993
455.09503 -429.8396 0
450.02521 -477.4733 86.406868
470.53989 -492.06888 68.718765
449.78281 -460.64554 0
457.93442 -491.65106 0
425.85666 -481.95215 73.317535
468.50021 -493.98376 70.667053
468.19431 -490.60107 68.104057
440.99197 -488.05011 92.048294
449.49927 -514.06555 117.23383
423.46472 -456.49924 101.68622
427.1022 -493.61774 8.8046913
413.53979 -447.59149 0
448.20795 -460.70703 94.437714
427.85239 -429.64169 7.4999971
444.94739 -469.16223 0
420.90802 -474.44943 92.517052
430.57629 -435.57266 28.28434
453.38293 -483.66794 99.318405
474.76706 -502.60352 81.410843
417.3873 -413.63574 148.78276
470.60989 -493.81595 68.503624
